# .PCD v1.8 - Point Cloud Data file format
VERSION 1.8
FIELDS x y z
SIZE 4 4 4
TYPE F F F
COUNT 1 1 1
WIDTH 1454 
HEIGHT 1
VIEWPOINT 0 0 0 1 0 0 0
POINTS 1454
DATA ascii
1.524451 325.710449 -578.831604
1.502341 325.710449 -578.831604
1.480178 325.699036 -578.811340
-7.844473 325.459930 -578.386414
-7.866567 325.459930 -578.386414
-7.888661 325.459930 -578.386414
-7.910755 325.459930 -578.386414
-7.932848 325.459930 -578.386414
-7.954942 325.459930 -578.386414
-7.977036 325.459930 -578.386414
-7.999129 325.459930 -578.386414
-8.021223 325.459930 -578.386414
-8.110166 325.482697 -578.426880
-8.132545 325.494080 -578.447083
-8.154926 325.505463 -578.467346
-8.177023 325.505463 -578.467346
-8.199120 325.505463 -578.467346
-8.221217 325.505463 -578.467346
-8.243314 325.505463 -578.467346
-8.265410 325.505463 -578.467346
-8.287507 325.505463 -578.467346
-8.309895 325.516846 -578.487549
-8.331992 325.516846 -578.487549
-8.354090 325.516846 -578.487549
-8.376480 325.528229 -578.507751
-8.399166 325.550995 -578.548218
-8.421267 325.550995 -578.548218
-8.443662 325.562378 -578.568481
-8.465762 325.562378 -578.568481
-8.487566 325.550995 -578.548218
-8.509070 325.528229 -578.507751
-8.552670 325.505463 -578.467346
-8.574166 325.482697 -578.426880
-8.596262 325.482697 -578.426880
-8.618056 325.471313 -578.406677
-8.640150 325.471313 -578.406677
-8.662548 325.482697 -578.426880
-8.684643 325.482697 -578.426880
-8.706738 325.482697 -578.426880
-8.728834 325.482697 -578.426880
-8.750929 325.482697 -578.426880
-8.773025 325.482697 -578.426880
-8.795119 325.482697 -578.426880
-8.816599 325.459930 -578.386414
-8.838693 325.459930 -578.386414
-8.860786 325.459930 -578.386414
-8.882880 325.459930 -578.386414
1.568673 325.688324 -578.831604
1.546562 325.688324 -578.831604
1.524451 325.688324 -578.831604
1.502341 325.688324 -578.831604
1.480230 325.688324 -578.831604
-7.822380 325.437836 -578.386414
-7.844473 325.437836 -578.386414
-7.866567 325.437836 -578.386414
-7.888661 325.437836 -578.386414
-7.910755 325.437836 -578.386414
-7.932848 325.437836 -578.386414
-7.954942 325.437836 -578.386414
-7.977036 325.437836 -578.386414
-7.999129 325.437836 -578.386414
-8.021223 325.437836 -578.386414
-8.088070 325.460602 -578.426880
-8.110449 325.471985 -578.447083
-8.132545 325.471985 -578.447083
-8.154926 325.483368 -578.467346
-8.177023 325.483368 -578.467346
-8.199120 325.483368 -578.467346
-8.221217 325.483368 -578.467346
-8.243314 325.483368 -578.467346
-8.265410 325.483368 -578.467346
-8.287507 325.483368 -578.467346
-8.309895 325.494751 -578.487549
-8.331992 325.494751 -578.487549
-8.354090 325.494751 -578.487549
-8.421560 325.540283 -578.568481
-8.443662 325.540283 -578.568481
-8.465762 325.540283 -578.568481
-8.487566 325.528900 -578.548218
-8.509070 325.506134 -578.507751
-8.531169 325.506134 -578.507751
-8.553267 325.506134 -578.507751
-8.575066 325.494751 -578.487549
-8.596863 325.483368 -578.467346
-8.618056 325.449219 -578.406677
-8.640150 325.449219 -578.406677
-8.662548 325.460602 -578.426880
-8.684643 325.460602 -578.426880
-8.706738 325.460602 -578.426880
-8.728834 325.460602 -578.426880
-8.750929 325.460602 -578.426880
-8.773025 325.460602 -578.426880
-8.795119 325.460602 -578.426880
-8.816599 325.437836 -578.386414
-8.838693 325.437836 -578.386414
-8.860786 325.437836 -578.386414
-8.882880 325.437836 -578.386414
1.590784 325.666229 -578.831604
1.568728 325.677612 -578.851868
1.546616 325.677612 -578.851868
1.524451 325.666229 -578.831604
1.502341 325.666229 -578.831604
1.480178 325.654816 -578.811340
-7.800286 325.415741 -578.386414
-7.822380 325.415741 -578.386414
-7.844473 325.415741 -578.386414
-7.866567 325.415741 -578.386414
-7.888661 325.415741 -578.386414
-7.910755 325.415741 -578.386414
-7.932848 325.415741 -578.386414
-7.954942 325.415741 -578.386414
-7.977036 325.415741 -578.386414
-7.999129 325.415741 -578.386414
-8.021223 325.415741 -578.386414
-8.043317 325.415741 -578.386414
-8.065975 325.438507 -578.426880
-8.088353 325.449890 -578.447083
-8.110449 325.449890 -578.447083
-8.132830 325.461273 -578.467346
-8.154926 325.461273 -578.467346
-8.177023 325.461273 -578.467346
-8.199120 325.461273 -578.467346
-8.221217 325.461273 -578.467346
-8.243314 325.461273 -578.467346
-8.265410 325.461273 -578.467346
-8.287507 325.461273 -578.467346
-8.309604 325.461273 -578.467346
-8.331992 325.472656 -578.487549
-8.421560 325.518158 -578.568481
-8.443662 325.518158 -578.568481
-8.465762 325.518158 -578.568481
-8.487863 325.518158 -578.568481
-8.509665 325.506775 -578.548218
-8.531169 325.484039 -578.507751
-8.553267 325.484039 -578.507751
-8.575066 325.472656 -578.487549
-8.597163 325.472656 -578.487549
-8.618358 325.438507 -578.426880
-8.640452 325.438507 -578.426880
-8.662548 325.438507 -578.426880
-8.684643 325.438507 -578.426880
-8.706738 325.438507 -578.426880
-8.728834 325.438507 -578.426880
-8.750929 325.438507 -578.426880
-8.773025 325.438507 -578.426880
-8.794812 325.427124 -578.406677
-8.816599 325.415741 -578.386414
-8.838693 325.415741 -578.386414
-8.860786 325.415741 -578.386414
-8.882880 325.415741 -578.386414
1.613007 325.666901 -578.872131
1.590895 325.666901 -578.872131
1.568783 325.666901 -578.872131
1.546670 325.666901 -578.872131
1.524558 325.666901 -578.872131
1.502446 325.666901 -578.872131
1.480230 325.644104 -578.831604
-7.778192 325.393646 -578.386414
-7.800286 325.393646 -578.386414
-7.822380 325.393646 -578.386414
-7.844473 325.393646 -578.386414
-7.866567 325.393646 -578.386414
-7.888661 325.393646 -578.386414
-7.910755 325.393646 -578.386414
-7.932848 325.393646 -578.386414
-7.954942 325.393646 -578.386414
-7.977036 325.393646 -578.386414
-7.999129 325.393646 -578.386414
-8.021223 325.393646 -578.386414
-8.043880 325.416412 -578.426880
-8.065975 325.416412 -578.426880
-8.088353 325.427795 -578.447083
-8.110732 325.439178 -578.467346
-8.132830 325.439178 -578.467346
-8.154926 325.439178 -578.467346
-8.177023 325.439178 -578.467346
-8.199120 325.439178 -578.467346
-8.221217 325.439178 -578.467346
-8.243314 325.439178 -578.467346
-8.265410 325.439178 -578.467346
-8.287507 325.439178 -578.467346
-8.309604 325.439178 -578.467346
-8.331701 325.439178 -578.467346
-8.421855 325.507446 -578.588684
-8.443956 325.507446 -578.588684
-8.465762 325.496063 -578.568481
-8.487863 325.496063 -578.568481
-8.509963 325.496063 -578.568481
-8.531766 325.484680 -578.548218
-8.553267 325.461914 -578.507751
-8.575366 325.461914 -578.507751
-8.597163 325.450562 -578.487549
-8.618358 325.416412 -578.426880
-8.662548 325.416412 -578.426880
-8.684643 325.416412 -578.426880
-8.706738 325.416412 -578.426880
-8.728834 325.416412 -578.426880
-8.750929 325.416412 -578.426880
-8.772717 325.405029 -578.406677
-8.794505 325.393646 -578.386414
-8.816599 325.393646 -578.386414
-8.838693 325.393646 -578.386414
-8.860786 325.393646 -578.386414
-8.882880 325.393646 -578.386414
1.613007 325.644775 -578.872131
1.590895 325.644775 -578.872131
1.568783 325.644775 -578.872131
1.546670 325.644775 -578.872131
1.524558 325.644775 -578.872131
1.502446 325.644775 -578.872131
1.480333 325.644775 -578.872131
-7.756098 325.371552 -578.386414
-7.778192 325.371552 -578.386414
-7.800286 325.371552 -578.386414
-7.822380 325.371552 -578.386414
-7.844473 325.371552 -578.386414
-7.866567 325.371552 -578.386414
-7.888661 325.371552 -578.386414
-7.910755 325.371552 -578.386414
-7.932848 325.371552 -578.386414
-7.954942 325.371552 -578.386414
-7.977036 325.371552 -578.386414
-7.999409 325.382935 -578.406677
-8.021503 325.382935 -578.406677
-8.043880 325.394318 -578.426880
-8.065975 325.394318 -578.426880
-8.088353 325.405701 -578.447083
-8.110732 325.417084 -578.467346
-8.132830 325.417084 -578.467346
-8.154926 325.417084 -578.467346
-8.177023 325.417084 -578.467346
-8.199120 325.417084 -578.467346
-8.221217 325.417084 -578.467346
-8.243314 325.417084 -578.467346
-8.265410 325.417084 -578.467346
-8.287507 325.417084 -578.467346
-8.309604 325.417084 -578.467346
-8.421855 325.485352 -578.588684
-8.443956 325.485352 -578.588684
-8.466058 325.485352 -578.588684
-8.487863 325.473969 -578.568481
-8.509963 325.473969 -578.568481
-8.531766 325.462585 -578.548218
-8.553865 325.462585 -578.548218
-8.575665 325.451202 -578.528015
-8.597465 325.439819 -578.507751
-8.618358 325.394318 -578.426880
-8.816599 325.371552 -578.386414
-8.838693 325.371552 -578.386414
-8.860786 325.371552 -578.386414
-8.882880 325.371552 -578.386414
1.635120 325.622681 -578.872131
1.613007 325.622681 -578.872131
1.590895 325.622681 -578.872131
1.568783 325.622681 -578.872131
1.546670 325.622681 -578.872131
1.524558 325.622681 -578.872131
1.502446 325.622681 -578.872131
1.480333 325.622681 -578.872131
-7.734004 325.349457 -578.386414
-7.756098 325.349457 -578.386414
-7.778192 325.349457 -578.386414
-7.800286 325.349457 -578.386414
-7.822380 325.349457 -578.386414
-7.844473 325.349457 -578.386414
-7.866567 325.349457 -578.386414
-7.888661 325.349457 -578.386414
-7.910755 325.349457 -578.386414
-7.932848 325.349457 -578.386414
-7.954942 325.349457 -578.386414
-7.977036 325.349457 -578.386414
-7.999409 325.360840 -578.406677
-8.021503 325.360840 -578.406677
-8.088353 325.383606 -578.447083
-8.110732 325.394958 -578.467346
-8.132830 325.394958 -578.467346
-8.154926 325.394958 -578.467346
-8.177023 325.394958 -578.467346
-8.199120 325.394958 -578.467346
-8.221217 325.394958 -578.467346
-8.243314 325.394958 -578.467346
-8.265410 325.394958 -578.467346
-8.287507 325.394958 -578.467346
-8.309023 325.372223 -578.426880
-8.443662 325.451874 -578.568481
-8.465762 325.451874 -578.568481
-8.487863 325.451874 -578.568481
-8.509665 325.440491 -578.548218
-8.531766 325.440491 -578.548218
-8.553865 325.440491 -578.548218
-8.575665 325.429108 -578.528015
-8.597765 325.429108 -578.528015
-8.619563 325.417725 -578.507751
-8.816599 325.349457 -578.386414
-8.838693 325.349457 -578.386414
-8.860786 325.349457 -578.386414
-8.882880 325.349457 -578.386414
1.723448 325.577789 -578.831604
1.701337 325.577789 -578.831604
1.679285 325.589172 -578.851868
1.657232 325.600555 -578.872131
1.635120 325.600555 -578.872131
1.613007 325.600555 -578.872131
1.590895 325.600555 -578.872131
1.568783 325.600555 -578.872131
1.546670 325.600555 -578.872131
1.524558 325.600555 -578.872131
1.502446 325.600555 -578.872131
1.480333 325.600555 -578.872131
-7.711911 325.327393 -578.386414
-7.734004 325.327393 -578.386414
-7.756098 325.327393 -578.386414
-7.778192 325.327393 -578.386414
-7.800286 325.327393 -578.386414
-7.822380 325.327393 -578.386414
-7.844473 325.327393 -578.386414
-7.866567 325.327393 -578.386414
-7.888661 325.327393 -578.386414
-7.910755 325.327393 -578.386414
-7.932848 325.327393 -578.386414
-7.954942 325.327393 -578.386414
-7.977036 325.327393 -578.386414
-8.088353 325.361511 -578.447083
-8.110732 325.372864 -578.467346
-8.132830 325.372864 -578.467346
-8.154926 325.372864 -578.467346
-8.177023 325.372864 -578.467346
-8.199120 325.372864 -578.467346
-8.221217 325.372864 -578.467346
-8.243314 325.372864 -578.467346
-8.265121 325.361511 -578.447083
-8.286928 325.350128 -578.426880
-8.487566 325.418396 -578.548218
-8.509665 325.418396 -578.548218
-8.531766 325.418396 -578.548218
-8.553865 325.418396 -578.548218
-8.575966 325.418396 -578.548218
-8.597765 325.407013 -578.528015
-8.619864 325.407013 -578.528015
-8.641963 325.407013 -578.528015
-8.664063 325.407013 -578.528015
-8.685858 325.395630 -578.507751
-8.816599 325.327393 -578.386414
-8.838693 325.327393 -578.386414
-8.860786 325.327393 -578.386414
-8.882880 325.327393 -578.386414
1.789780 325.555664 -578.831604
1.767670 325.555664 -578.831604
1.745559 325.555664 -578.831604
1.723448 325.555664 -578.831604
1.701337 325.555664 -578.831604
1.679285 325.567047 -578.851868
1.657174 325.567047 -578.851868
1.635120 325.578461 -578.872131
1.613007 325.578461 -578.872131
1.590895 325.578461 -578.872131
1.568783 325.578461 -578.872131
1.546670 325.578461 -578.872131
1.524558 325.578461 -578.872131
1.502446 325.578461 -578.872131
1.480282 325.567047 -578.851868
-7.689817 325.305298 -578.386414
-7.711911 325.305298 -578.386414
-7.734004 325.305298 -578.386414
-7.756098 325.305298 -578.386414
-7.778192 325.305298 -578.386414
-7.800286 325.305298 -578.386414
-7.822380 325.305298 -578.386414
-7.844473 325.305298 -578.386414
-7.866567 325.305298 -578.386414
-7.888661 325.305298 -578.386414
-7.910755 325.305298 -578.386414
-8.088635 325.350769 -578.467346
-8.110732 325.350769 -578.467346
-8.132830 325.350769 -578.467346
-8.154926 325.350769 -578.467346
-8.177023 325.350769 -578.467346
-8.199120 325.350769 -578.467346
-8.221217 325.350769 -578.467346
-8.243026 325.339417 -578.447083
-8.264832 325.328033 -578.426880
-8.553865 325.396301 -578.548218
-8.575966 325.396301 -578.548218
-8.597765 325.384918 -578.528015
-8.619864 325.384918 -578.528015
-8.641963 325.384918 -578.528015
-8.664366 325.396301 -578.548218
-8.686162 325.384918 -578.528015
-8.816599 325.305298 -578.386414
-8.838693 325.305298 -578.386414
-8.860786 325.305298 -578.386414
-8.882880 325.305298 -578.386414
1.834002 325.533569 -578.831604
1.811891 325.533569 -578.831604
1.789780 325.533569 -578.831604
1.767670 325.533569 -578.831604
1.745559 325.533569 -578.831604
1.723448 325.533569 -578.831604
1.701337 325.533569 -578.831604
1.679227 325.533569 -578.831604
1.657116 325.533569 -578.831604
1.635005 325.533569 -578.831604
1.612894 325.533569 -578.831604
1.590784 325.533569 -578.831604
1.568728 325.544952 -578.851868
1.546616 325.544952 -578.851868
1.524505 325.544952 -578.851868
1.502393 325.544952 -578.851868
1.480230 325.533569 -578.831604
1.458068 325.522156 -578.811340
1.435858 325.499390 -578.770874
-7.645629 325.283203 -578.386414
-7.667723 325.283203 -578.386414
-7.689817 325.283203 -578.386414
-7.711911 325.283203 -578.386414
-7.734004 325.283203 -578.386414
-7.756098 325.283203 -578.386414
-7.778192 325.283203 -578.386414
-7.800286 325.283203 -578.386414
-7.822380 325.283203 -578.386414
-7.844473 325.283203 -578.386414
-7.866567 325.283203 -578.386414
-8.088353 325.317322 -578.447083
-8.110732 325.328674 -578.467346
-8.132830 325.328674 -578.467346
-8.154926 325.328674 -578.467346
-8.177023 325.328674 -578.467346
-8.199120 325.328674 -578.467346
-8.221217 325.328674 -578.467346
-8.620166 325.374176 -578.548218
-8.642265 325.374176 -578.548218
-8.664366 325.374176 -578.548218
-8.686465 325.374176 -578.548218
-8.816599 325.283203 -578.386414
-8.838693 325.283203 -578.386414
-8.860786 325.283203 -578.386414
-8.882880 325.283203 -578.386414
1.834002 325.511444 -578.831604
1.811891 325.511444 -578.831604
1.789780 325.511444 -578.831604
1.767670 325.511444 -578.831604
1.745559 325.511444 -578.831604
1.723448 325.511444 -578.831604
1.701337 325.511444 -578.831604
1.679227 325.511444 -578.831604
1.657116 325.511444 -578.831604
1.635005 325.511444 -578.831604
1.568673 325.511444 -578.831604
1.546562 325.511444 -578.831604
1.524451 325.511444 -578.831604
1.502341 325.511444 -578.831604
1.480230 325.511444 -578.831604
1.458068 325.500061 -578.811340
1.435908 325.488678 -578.791138
1.413749 325.477295 -578.770874
1.391641 325.477295 -578.770874
1.369484 325.465912 -578.750610
-7.623536 325.261108 -578.386414
-7.645629 325.261108 -578.386414
-7.667723 325.261108 -578.386414
-7.689817 325.261108 -578.386414
-7.711911 325.261108 -578.386414
-7.734004 325.261108 -578.386414
-7.756098 325.261108 -578.386414
-7.778192 325.261108 -578.386414
-7.800286 325.261108 -578.386414
-7.822380 325.261108 -578.386414
-7.844473 325.261108 -578.386414
-7.866567 325.261108 -578.386414
-8.177023 325.306580 -578.467346
-8.199120 325.306580 -578.467346
-8.664366 325.352081 -578.548218
-8.686465 325.352081 -578.548218
-8.816599 325.261108 -578.386414
-8.838693 325.261108 -578.386414
-8.860786 325.261108 -578.386414
-8.882880 325.261108 -578.386414
1.834002 325.489349 -578.831604
1.811891 325.489349 -578.831604
1.789780 325.489349 -578.831604
1.767670 325.489349 -578.831604
1.745559 325.489349 -578.831604
1.723448 325.489349 -578.831604
1.701337 325.489349 -578.831604
1.679227 325.489349 -578.831604
1.657116 325.489349 -578.831604
1.635005 325.489349 -578.831604
1.612894 325.489349 -578.831604
1.590784 325.489349 -578.831604
1.568673 325.489349 -578.831604
1.546562 325.489349 -578.831604
1.524451 325.489349 -578.831604
1.502341 325.489349 -578.831604
1.480126 325.466553 -578.791138
1.458017 325.466553 -578.791138
1.435908 325.466553 -578.791138
1.413749 325.455170 -578.770874
1.391641 325.455170 -578.770874
1.369484 325.443787 -578.750610
1.347377 325.443787 -578.750610
-7.579348 325.239014 -578.386414
-7.601442 325.239014 -578.386414
-7.623536 325.239014 -578.386414
-7.645629 325.239014 -578.386414
-7.667723 325.239014 -578.386414
-7.689817 325.239014 -578.386414
-7.711911 325.239014 -578.386414
-7.734004 325.239014 -578.386414
-7.756098 325.239014 -578.386414
-7.778192 325.239014 -578.386414
-7.800286 325.239014 -578.386414
-7.822927 325.261749 -578.426880
-7.845296 325.273102 -578.447083
-7.867667 325.284485 -578.467346
-7.889764 325.284485 -578.467346
-8.816599 325.239014 -578.386414
-8.838693 325.239014 -578.386414
-8.860786 325.239014 -578.386414
-8.882880 325.239014 -578.386414
1.834002 325.467224 -578.831604
1.811891 325.467224 -578.831604
1.789780 325.467224 -578.831604
1.767670 325.467224 -578.831604
1.745559 325.467224 -578.831604
1.723448 325.467224 -578.831604
1.701337 325.467224 -578.831604
1.679227 325.467224 -578.831604
1.657116 325.467224 -578.831604
1.590784 325.467224 -578.831604
1.568673 325.467224 -578.831604
1.546562 325.467224 -578.831604
1.524451 325.467224 -578.831604
1.458017 325.444458 -578.791138
1.435858 325.433075 -578.770874
1.413749 325.433075 -578.770874
1.391641 325.433075 -578.770874
1.369484 325.421692 -578.750610
1.347377 325.421692 -578.750610
-7.535161 325.216919 -578.386414
-7.557254 325.216919 -578.386414
-7.579348 325.216919 -578.386414
-7.601442 325.216919 -578.386414
-7.623536 325.216919 -578.386414
-7.645629 325.216919 -578.386414
-7.667723 325.216919 -578.386414
-7.689817 325.216919 -578.386414
-7.711911 325.216919 -578.386414
-7.734004 325.216919 -578.386414
-7.756098 325.216919 -578.386414
-7.778192 325.216919 -578.386414
-7.800831 325.239655 -578.426880
-7.823200 325.251007 -578.447083
-7.845571 325.262390 -578.467346
-7.867667 325.262390 -578.467346
-7.890040 325.273773 -578.487549
-7.912138 325.273773 -578.487549
-7.934235 325.273773 -578.487549
-8.816599 325.216919 -578.386414
-8.838693 325.216919 -578.386414
-8.860786 325.216919 -578.386414
-8.882880 325.216919 -578.386414
1.834002 325.445129 -578.831604
1.789780 325.445129 -578.831604
1.767670 325.445129 -578.831604
1.745559 325.445129 -578.831604
1.723388 325.433716 -578.811340
1.701278 325.433716 -578.811340
1.679168 325.433716 -578.811340
1.568673 325.445129 -578.831604
1.546562 325.445129 -578.831604
1.457966 325.410950 -578.770874
1.435858 325.410950 -578.770874
1.413749 325.410950 -578.770874
1.391592 325.399567 -578.750610
1.369484 325.399567 -578.750610
-7.468879 325.194824 -578.386414
-7.490973 325.194824 -578.386414
-7.513067 325.194824 -578.386414
-7.535161 325.194824 -578.386414
-7.557254 325.194824 -578.386414
-7.579348 325.194824 -578.386414
-7.601442 325.194824 -578.386414
-7.623536 325.194824 -578.386414
-7.645629 325.194824 -578.386414
-7.667723 325.194824 -578.386414
-7.689817 325.194824 -578.386414
-7.711911 325.194824 -578.386414
-7.734004 325.194824 -578.386414
-7.756098 325.194824 -578.386414
-7.778736 325.217560 -578.426880
-7.800831 325.217560 -578.426880
-7.823200 325.228912 -578.447083
-7.845571 325.240295 -578.467346
-7.867942 325.251678 -578.487549
-7.890040 325.251678 -578.487549
-7.912138 325.251678 -578.487549
-7.934513 325.263031 -578.507751
-8.816599 325.194824 -578.386414
-8.838693 325.194824 -578.386414
-8.860786 325.194824 -578.386414
-8.882880 325.194824 -578.386414
-7.358411 325.172729 -578.386414
-7.380505 325.172729 -578.386414
-7.402598 325.172729 -578.386414
-7.424692 325.172729 -578.386414
-7.446785 325.172729 -578.386414
-7.468879 325.172729 -578.386414
-7.490973 325.172729 -578.386414
-7.513067 325.172729 -578.386414
-7.535161 325.172729 -578.386414
-7.557254 325.172729 -578.386414
-7.579348 325.172729 -578.386414
-7.601442 325.172729 -578.386414
-7.623536 325.172729 -578.386414
-7.645629 325.172729 -578.386414
-7.667723 325.172729 -578.386414
-7.689817 325.172729 -578.386414
-7.711911 325.172729 -578.386414
-7.734004 325.172729 -578.386414
-7.756640 325.195465 -578.426880
-7.778736 325.195465 -578.426880
-7.800831 325.195465 -578.426880
-7.823200 325.206818 -578.447083
-7.845571 325.218201 -578.467346
-7.867942 325.229584 -578.487549
-7.890040 325.229584 -578.487549
-7.912138 325.229584 -578.487549
-8.816599 325.172729 -578.386414
-8.838693 325.172729 -578.386414
-8.860786 325.172729 -578.386414
-8.882880 325.172729 -578.386414
-7.358411 325.150635 -578.386414
-7.380505 325.150635 -578.386414
-7.402598 325.150635 -578.386414
-7.424692 325.150635 -578.386414
-7.446785 325.150635 -578.386414
-7.468879 325.150635 -578.386414
-7.490973 325.150635 -578.386414
-7.513067 325.150635 -578.386414
-7.535161 325.150635 -578.386414
-7.557254 325.150635 -578.386414
-7.579348 325.150635 -578.386414
-7.601442 325.150635 -578.386414
-7.623536 325.150635 -578.386414
-7.645629 325.150635 -578.386414
-7.667991 325.161987 -578.406677
-7.690355 325.173370 -578.426880
-7.712450 325.173370 -578.426880
-7.734545 325.173370 -578.426880
-7.756640 325.173370 -578.426880
-7.778736 325.173370 -578.426880
-7.800831 325.173370 -578.426880
-7.823200 325.184723 -578.447083
-7.845571 325.196106 -578.467346
-7.867942 325.207458 -578.487549
-7.890040 325.207458 -578.487549
-8.816599 325.150635 -578.386414
-8.838693 325.150635 -578.386414
-8.860786 325.150635 -578.386414
-8.882880 325.150635 -578.386414
-7.402598 325.128540 -578.386414
-7.424692 325.128540 -578.386414
-7.446785 325.128540 -578.386414
-7.468879 325.128540 -578.386414
-7.490973 325.128540 -578.386414
-7.579348 325.128540 -578.386414
-7.690355 325.151276 -578.426880
-7.712450 325.151276 -578.426880
-7.734545 325.151276 -578.426880
-7.756640 325.151276 -578.426880
-7.778736 325.151276 -578.426880
-7.800831 325.151276 -578.426880
-7.822927 325.151276 -578.426880
-7.845296 325.162628 -578.447083
-7.867667 325.174011 -578.467346
-8.816599 325.128540 -578.386414
-8.838693 325.128540 -578.386414
-8.860786 325.128540 -578.386414
-8.882880 325.128540 -578.386414
-7.756640 325.129181 -578.426880
-7.778736 325.129181 -578.426880
-7.800831 325.129181 -578.426880
-7.822927 325.129181 -578.426880
-8.816599 325.106445 -578.386414
-8.838693 325.106445 -578.386414
-8.860786 325.106445 -578.386414
-8.882880 325.106445 -578.386414
-8.816599 325.084351 -578.386414
-8.838693 325.084351 -578.386414
-8.860786 325.084351 -578.386414
-8.882880 325.084351 -578.386414
-8.816599 325.062256 -578.386414
-8.838693 325.062256 -578.386414
-8.860786 325.062256 -578.386414
-8.882880 325.062256 -578.386414
-8.816599 325.040161 -578.386414
-8.838693 325.040161 -578.386414
-8.860786 325.040161 -578.386414
-8.882880 325.040161 -578.386414
-8.816599 325.018066 -578.386414
-8.838693 325.018066 -578.386414
-8.860786 325.018066 -578.386414
-8.882880 325.018066 -578.386414
-8.794505 324.995972 -578.386414
-8.816599 324.995972 -578.386414
-8.838693 324.995972 -578.386414
-8.860786 324.995972 -578.386414
-8.882880 324.995972 -578.386414
-8.794505 324.973877 -578.386414
-8.816599 324.973877 -578.386414
-8.838693 324.973877 -578.386414
-8.860786 324.973877 -578.386414
-8.882880 324.973877 -578.386414
-8.816599 324.951782 -578.386414
-8.838693 324.951782 -578.386414
-8.860786 324.951782 -578.386414
-8.882880 324.951782 -578.386414
-8.816599 324.929688 -578.386414
-8.838693 324.929688 -578.386414
-8.860786 324.929688 -578.386414
-8.882880 324.929688 -578.386414
-7.527298 327.448914 -582.910339
-7.549831 327.460449 -582.930908
-7.572365 327.471985 -582.951416
-8.816599 324.907593 -578.386414
-8.838693 324.907593 -578.386414
-8.860786 324.907593 -578.386414
-8.882880 324.907593 -578.386414
-7.505032 327.426636 -582.910339
-7.527564 327.438171 -582.930908
-7.550097 327.449707 -582.951416
-7.572632 327.461243 -582.971985
-7.594901 327.461243 -582.971985
-8.816599 324.885498 -578.386414
-8.838693 324.885498 -578.386414
-8.860786 324.885498 -578.386414
-8.882880 324.885498 -578.386414
-7.505296 327.415924 -582.930908
-7.527829 327.427460 -582.951416
-7.550097 327.427460 -582.951416
-7.572632 327.438995 -582.971985
-7.595169 327.450531 -582.992554
-7.617438 327.450531 -582.992554
-7.639708 327.450531 -582.992554
-8.816599 324.863403 -578.386414
-8.838693 324.863403 -578.386414
-8.860786 324.863403 -578.386414
-8.882880 324.863403 -578.386414
-7.505561 327.405182 -582.951416
-7.527829 327.405182 -582.951416
-7.550097 327.405182 -582.951416
-7.572632 327.416718 -582.971985
-7.595169 327.428253 -582.992554
-7.617438 327.428253 -582.992554
-7.639708 327.428253 -582.992554
-7.661978 327.428253 -582.992554
-8.816599 324.841309 -578.386414
-8.838693 324.841309 -578.386414
-8.860786 324.841309 -578.386414
-8.882880 324.841309 -578.386414
-7.483029 327.371368 -582.930908
-7.505561 327.382904 -582.951416
-7.527829 327.382904 -582.951416
-7.550097 327.382904 -582.951416
-7.572632 327.394440 -582.971985
-7.595169 327.405975 -582.992554
-7.617438 327.405975 -582.992554
-7.639708 327.405975 -582.992554
-7.661978 327.405975 -582.992554
-8.816599 324.819214 -578.386414
-8.838693 324.819214 -578.386414
-8.860786 324.819214 -578.386414
-8.882880 324.819214 -578.386414
-7.483029 327.349121 -582.930908
-7.505561 327.360657 -582.951416
-7.527829 327.360657 -582.951416
-7.550097 327.360657 -582.951416
-7.572632 327.372192 -582.971985
-7.595169 327.383728 -582.992554
-7.617438 327.383728 -582.992554
-7.639708 327.383728 -582.992554
-7.661978 327.383728 -582.992554
-8.794505 324.797119 -578.386414
-8.816599 324.797119 -578.386414
-8.838693 324.797119 -578.386414
-8.860786 324.797119 -578.386414
-8.882880 324.797119 -578.386414
-7.393178 327.292236 -582.869263
-7.415443 327.292236 -582.869263
-7.460236 327.303772 -582.889832
-7.483029 327.326843 -582.930908
-7.505561 327.338379 -582.951416
-7.527829 327.338379 -582.951416
-7.550097 327.338379 -582.951416
-7.572632 327.349915 -582.971985
-7.594901 327.349915 -582.971985
-7.617438 327.361450 -582.992554
-7.639708 327.361450 -582.992554
-7.661707 327.349915 -582.971985
-7.683977 327.349915 -582.971985
-8.794505 324.775024 -578.386414
-8.816599 324.775024 -578.386414
-8.838693 324.775024 -578.386414
-8.860786 324.775024 -578.386414
-8.882880 324.775024 -578.386414
-7.370913 327.269989 -582.869263
-7.393178 327.269989 -582.869263
-7.415704 327.281525 -582.889832
-7.437970 327.281525 -582.889832
-7.460236 327.281525 -582.889832
-7.483029 327.304565 -582.930908
-7.505561 327.316101 -582.951416
-7.527829 327.316101 -582.951416
-7.550097 327.316101 -582.951416
-7.572632 327.327637 -582.971985
-7.594901 327.327637 -582.971985
-7.617170 327.327637 -582.971985
-7.639439 327.327637 -582.971985
-7.661707 327.327637 -582.971985
-7.683706 327.316101 -582.951416
-7.705974 327.316101 -582.951416
-8.794505 324.752930 -578.386414
-8.816599 324.752930 -578.386414
-8.838693 324.752930 -578.386414
-8.860786 324.752930 -578.386414
-8.882880 324.752930 -578.386414
-7.348648 327.247711 -582.869263
-7.371173 327.259247 -582.889832
-7.393438 327.259247 -582.889832
-7.415704 327.259247 -582.889832
-7.437970 327.259247 -582.889832
-7.460499 327.270782 -582.910339
-7.482765 327.270782 -582.910339
-7.505296 327.282318 -582.930908
-7.527829 327.293854 -582.951416
-7.550097 327.293854 -582.951416
-7.572365 327.293854 -582.951416
-7.594901 327.305359 -582.971985
-7.617170 327.305359 -582.971985
-7.639170 327.293854 -582.951416
-7.661438 327.293854 -582.951416
-7.683706 327.293854 -582.951416
-7.705974 327.293854 -582.951416
-7.728242 327.293854 -582.951416
-8.794505 324.730835 -578.386414
-8.816599 324.730835 -578.386414
-8.838693 324.730835 -578.386414
-8.860786 324.730835 -578.386414
-8.882880 324.730835 -578.386414
-7.348907 327.236969 -582.889832
-7.371173 327.236969 -582.889832
-7.393438 327.236969 -582.889832
-7.415704 327.236969 -582.889832
-7.438232 327.248505 -582.910339
-7.460499 327.248505 -582.910339
-7.482765 327.248505 -582.910339
-7.505032 327.248505 -582.910339
-7.527564 327.260040 -582.930908
-7.549831 327.260040 -582.930908
-7.572365 327.271576 -582.951416
-7.594633 327.271576 -582.951416
-7.616901 327.271576 -582.951416
-7.639170 327.271576 -582.951416
-7.661438 327.271576 -582.951416
-7.683706 327.271576 -582.951416
-7.705974 327.271576 -582.951416
-7.728242 327.271576 -582.951416
-7.750510 327.271576 -582.951416
-7.772231 327.248505 -582.910339
-8.794505 324.708740 -578.386414
-8.816599 324.708740 -578.386414
-8.838693 324.708740 -578.386414
-8.860786 324.708740 -578.386414
-8.882880 324.708740 -578.386414
-7.371173 327.214722 -582.889832
-7.393438 327.214722 -582.889832
-7.415704 327.214722 -582.889832
-7.437970 327.214722 -582.889832
-7.460499 327.226257 -582.910339
-7.482765 327.226257 -582.910339
-7.505032 327.226257 -582.910339
-7.527298 327.226257 -582.910339
-7.549831 327.237762 -582.930908
-7.572098 327.237762 -582.930908
-7.594633 327.249298 -582.951416
-7.616901 327.249298 -582.951416
-7.639170 327.249298 -582.951416
-7.661438 327.249298 -582.951416
-7.683706 327.249298 -582.951416
-7.705974 327.249298 -582.951416
-7.728242 327.249298 -582.951416
-7.750510 327.249298 -582.951416
-7.772504 327.237762 -582.930908
-7.794772 327.237762 -582.930908
-7.816764 327.226257 -582.910339
-8.816599 324.686646 -578.386414
-8.838693 324.686646 -578.386414
-8.860786 324.686646 -578.386414
-8.882880 324.686646 -578.386414
-7.393438 327.192444 -582.889832
-7.415704 327.192444 -582.889832
-7.437970 327.192444 -582.889832
-7.460236 327.192444 -582.889832
-7.482502 327.192444 -582.889832
-7.504767 327.192444 -582.889832
-7.527298 327.203979 -582.910339
-7.549565 327.203979 -582.910339
-7.571832 327.203979 -582.910339
-7.594366 327.215515 -582.930908
-7.616633 327.215515 -582.930908
-7.639170 327.227020 -582.951416
-7.661438 327.227020 -582.951416
-7.683706 327.227020 -582.951416
-7.705974 327.227020 -582.951416
-7.728242 327.227020 -582.951416
-7.750237 327.215515 -582.930908
-7.772504 327.215515 -582.930908
-7.794772 327.215515 -582.930908
-7.816764 327.203979 -582.910339
-8.816599 324.664551 -578.386414
-8.838693 324.664551 -578.386414
-8.860786 324.664551 -578.386414
-8.882880 324.664551 -578.386414
-7.415443 327.158661 -582.869263
-7.437708 327.158661 -582.869263
-7.459973 327.158661 -582.869263
-7.482238 327.158661 -582.869263
-7.504503 327.158661 -582.869263
-7.527033 327.170197 -582.889832
-7.549299 327.170197 -582.889832
-7.571565 327.170197 -582.889832
-7.593831 327.170197 -582.889832
-7.661438 327.204773 -582.951416
-7.683706 327.204773 -582.951416
-7.705974 327.204773 -582.951416
-7.727970 327.193237 -582.930908
-7.750237 327.193237 -582.930908
-7.772504 327.193237 -582.930908
-7.794497 327.181702 -582.910339
-8.816599 324.642456 -578.386414
-8.838693 324.642456 -578.386414
-8.860786 324.642456 -578.386414
-8.882880 324.642456 -578.386414
-7.415443 327.136383 -582.869263
-7.437708 327.136383 -582.869263
-7.459973 327.136383 -582.869263
-7.482238 327.136383 -582.869263
-7.504503 327.136383 -582.869263
-7.526768 327.136383 -582.869263
-7.549299 327.147919 -582.889832
-7.571298 327.136383 -582.869263
-7.593563 327.136383 -582.869263
-8.816599 324.620392 -578.386414
-8.838693 324.620392 -578.386414
-8.860786 324.620392 -578.386414
-8.882880 324.620392 -578.386414
-7.437708 327.114136 -582.869263
-7.459973 327.114136 -582.869263
-7.482238 327.114136 -582.869263
-7.504503 327.114136 -582.869263
-7.526768 327.114136 -582.869263
-7.549033 327.114136 -582.869263
-7.571298 327.114136 -582.869263
-7.593563 327.114136 -582.869263
-7.615560 327.102600 -582.848755
-8.816599 324.598297 -578.386414
-8.838693 324.598297 -578.386414
-8.860786 324.598297 -578.386414
-8.882880 324.598297 -578.386414
-5.770679 327.253265 -583.156921
-5.792955 327.253265 -583.156921
-7.482238 327.091858 -582.869263
-7.504503 327.091858 -582.869263
-7.526768 327.091858 -582.869263
-7.549033 327.091858 -582.869263
-7.571298 327.091858 -582.869263
-7.593563 327.091858 -582.869263
-7.615560 327.080353 -582.848755
-8.816599 324.576202 -578.386414
-8.838693 324.576202 -578.386414
-8.860786 324.576202 -578.386414
-8.882880 324.576202 -578.386414
-5.726128 327.230988 -583.156921
-5.748404 327.230988 -583.156921
-5.770679 327.230988 -583.156921
-5.792955 327.230988 -583.156921
-5.815231 327.230988 -583.156921
-7.481711 327.046539 -582.828247
-7.504239 327.058075 -582.848755
-7.526503 327.058075 -582.848755
-7.548767 327.058075 -582.848755
-7.571031 327.058075 -582.848755
-7.593296 327.058075 -582.848755
-7.615560 327.058075 -582.848755
-7.637555 327.046539 -582.828247
-8.816599 324.554108 -578.386414
-8.838693 324.554108 -578.386414
-8.860786 324.554108 -578.386414
-8.882880 324.554108 -578.386414
-5.703852 327.208710 -583.156921
-5.726128 327.208710 -583.156921
-5.748404 327.208710 -583.156921
-5.770679 327.208710 -583.156921
-5.792955 327.208710 -583.156921
-5.815231 327.208710 -583.156921
-7.177102 327.347168 -583.403687
-7.199388 327.347168 -583.403687
-7.503974 327.024292 -582.828247
-7.526503 327.035797 -582.848755
-7.548767 327.035797 -582.848755
-7.571031 327.035797 -582.848755
-7.593296 327.035797 -582.848755
-7.615292 327.024292 -582.828247
-8.289911 327.289459 -583.300842
-8.816599 324.532013 -578.386414
-8.838693 324.532013 -578.386414
-8.860786 324.532013 -578.386414
-8.882880 324.532013 -578.386414
-2.207378 327.313354 -583.383118
-5.681576 327.186432 -583.156921
-5.703852 327.186432 -583.156921
-5.726128 327.186432 -583.156921
-5.748404 327.186432 -583.156921
-5.770679 327.186432 -583.156921
-5.792955 327.186432 -583.156921
-5.815231 327.186432 -583.156921
-7.177102 327.324890 -583.403687
-7.199388 327.324890 -583.403687
-7.526237 327.002014 -582.828247
-7.548767 327.013550 -582.848755
-7.570765 327.002014 -582.828247
-7.593028 327.002014 -582.828247
-7.615292 327.002014 -582.828247
-8.046516 327.336426 -583.424255
-8.245348 327.267181 -583.300842
-8.267921 327.278717 -583.321411
-8.290496 327.290283 -583.341980
-8.312778 327.290283 -583.341980
-8.403985 327.371063 -583.485962
-8.426273 327.371063 -583.485962
-8.838693 324.509918 -578.386414
-8.860786 324.509918 -578.386414
-8.882880 324.509918 -578.386414
-2.118090 327.267975 -583.341980
-2.140449 327.279510 -583.362549
-2.162809 327.291077 -583.383118
-2.185094 327.291077 -583.383118
-2.207378 327.291077 -583.383118
-2.229584 327.279510 -583.362549
-5.571374 327.233368 -583.280273
-5.593457 327.221832 -583.259705
-5.681576 327.164154 -583.156921
-5.703852 327.164154 -583.156921
-5.726128 327.164154 -583.156921
-5.748404 327.164154 -583.156921
-5.770679 327.164154 -583.156921
-5.792955 327.164154 -583.156921
-7.177102 327.302612 -583.403687
-7.199388 327.302612 -583.403687
-7.424074 327.383423 -583.547729
-7.446365 327.383423 -583.547729
-7.548501 326.979767 -582.828247
-7.570765 326.979767 -582.828247
-7.593028 326.979767 -582.828247
-8.024231 327.314148 -583.424255
-8.046801 327.325684 -583.444824
-8.069088 327.325684 -583.444824
-8.201075 327.256439 -583.321411
-8.223356 327.256439 -583.321411
-8.245930 327.267975 -583.341980
-8.268212 327.267975 -583.341980
-8.290788 327.279510 -583.362549
-8.313072 327.279510 -583.362549
-8.335356 327.279510 -583.362549
-8.358229 327.302612 -583.403687
-8.381697 327.348785 -583.485962
-8.403985 327.348785 -583.485962
-8.426273 327.348785 -583.485962
-8.448563 327.348785 -583.485962
-8.470851 327.348785 -583.485962
-8.838693 324.487823 -578.386414
-8.860786 324.487823 -578.386414
-8.882880 324.487823 -578.386414
-2.095807 327.245697 -583.341980
-2.118165 327.257233 -583.362549
-2.140449 327.257233 -583.362549
-2.162809 327.268768 -583.383118
-2.185094 327.268768 -583.383118
-2.207378 327.268768 -583.383118
-2.229584 327.257233 -583.362549
-5.548898 327.199554 -583.259705
-5.571374 327.211090 -583.280273
-5.593457 327.199554 -583.259705
-5.615540 327.188019 -583.239136
-5.637222 327.153412 -583.177490
-5.659499 327.153412 -583.177490
-5.681776 327.153412 -583.177490
-5.703852 327.141876 -583.156921
-5.726128 327.141876 -583.156921
-5.748404 327.141876 -583.156921
-5.770679 327.141876 -583.156921
-5.792955 327.141876 -583.156921
-7.177102 327.280334 -583.403687
-7.199388 327.280334 -583.403687
-7.401783 327.361115 -583.547729
-7.424074 327.361115 -583.547729
-7.446365 327.361115 -583.547729
-7.468656 327.361115 -583.547729
-7.490947 327.361115 -583.547729
-8.024513 327.303406 -583.444824
-8.046801 327.303406 -583.444824
-8.069088 327.303406 -583.444824
-8.091374 327.303406 -583.444824
-8.178792 327.234161 -583.321411
-8.201075 327.234161 -583.321411
-8.223646 327.245697 -583.341980
-8.246221 327.257233 -583.362549
-8.268504 327.257233 -583.362549
-8.290788 327.257233 -583.362549
-8.313072 327.257233 -583.362549
-8.335356 327.257233 -583.362549
-8.358229 327.280334 -583.403687
-8.381697 327.326477 -583.485962
-8.403985 327.326477 -583.485962
-8.426273 327.326477 -583.485962
-8.448563 327.326477 -583.485962
-8.470851 327.326477 -583.485962
-8.493139 327.326477 -583.485962
-8.838693 324.465729 -578.386414
-8.860786 324.465729 -578.386414
-8.882880 324.465729 -578.386414
-2.095807 327.223419 -583.341980
-2.118165 327.234955 -583.362549
-2.140449 327.234955 -583.362549
-2.162733 327.234955 -583.362549
-2.185017 327.234955 -583.362549
-2.207300 327.234955 -583.362549
-2.229584 327.234955 -583.362549
-5.548702 327.165741 -583.239136
-5.570981 327.165741 -583.239136
-5.593260 327.165741 -583.239136
-5.615143 327.142670 -583.198059
-5.637222 327.131134 -583.177490
-5.659499 327.131134 -583.177490
-5.681776 327.131134 -583.177490
-5.703852 327.119629 -583.156921
-5.726128 327.119629 -583.156921
-5.748404 327.119629 -583.156921
-5.770679 327.119629 -583.156921
-7.177102 327.258026 -583.403687
-7.379492 327.338837 -583.547729
-7.401783 327.338837 -583.547729
-7.424074 327.338837 -583.547729
-7.446365 327.338837 -583.547729
-7.468656 327.338837 -583.547729
-7.490947 327.338837 -583.547729
-7.513238 327.338837 -583.547729
-8.001945 327.269562 -583.424255
-8.024513 327.281128 -583.444824
-8.046801 327.281128 -583.444824
-8.069088 327.281128 -583.444824
-8.091374 327.281128 -583.444824
-8.156509 327.211884 -583.321411
-8.178792 327.211884 -583.321411
-8.201364 327.223419 -583.341980
-8.223646 327.223419 -583.341980
-8.246221 327.234955 -583.362549
-8.268504 327.234955 -583.362549
-8.290788 327.234955 -583.362549
-8.313072 327.234955 -583.362549
-8.335649 327.246490 -583.383118
-8.358818 327.281128 -583.444824
-8.381401 327.292664 -583.465393
-8.403985 327.304199 -583.485962
-8.426273 327.304199 -583.485962
-8.448563 327.304199 -583.485962
-8.470851 327.304199 -583.485962
-8.493139 327.304199 -583.485962
-8.838693 324.443634 -578.386414
-8.860786 324.443634 -578.386414
-8.882880 324.443634 -578.386414
-2.118165 327.212677 -583.362549
-2.140449 327.212677 -583.362549
-2.162733 327.212677 -583.362549
-2.185017 327.212677 -583.362549
-2.207300 327.212677 -583.362549
-2.229584 327.212677 -583.362549
-5.570981 327.143463 -583.239136
-5.593260 327.143463 -583.239136
-5.615143 327.120392 -583.198059
-5.637421 327.120392 -583.198059
-5.659698 327.120392 -583.198059
-5.681776 327.108856 -583.177490
-5.704052 327.108856 -583.177490
-5.726128 327.097351 -583.156921
-5.748404 327.097351 -583.156921
-5.770679 327.097351 -583.156921
-7.133286 327.270386 -583.465393
-7.155574 327.270386 -583.465393
-7.177608 327.258820 -583.444824
-7.356942 327.304993 -583.527161
-7.379492 327.316559 -583.547729
-7.401783 327.316559 -583.547729
-7.424074 327.316559 -583.547729
-7.446365 327.316559 -583.547729
-7.468656 327.316559 -583.547729
-7.490947 327.316559 -583.547729
-7.513238 327.316559 -583.547729
-7.735874 327.304993 -583.527161
-7.758164 327.304993 -583.527161
-7.780454 327.304993 -583.527161
-8.002227 327.258820 -583.444824
-8.024513 327.258820 -583.444824
-8.046801 327.258820 -583.444824
-8.069088 327.258820 -583.444824
-8.091374 327.258820 -583.444824
-8.156509 327.189606 -583.321411
-8.179080 327.201141 -583.341980
-8.201364 327.201141 -583.341980
-8.223936 327.212677 -583.362549
-8.246221 327.212677 -583.362549
-8.268504 327.212677 -583.362549
-8.290788 327.212677 -583.362549
-8.313072 327.212677 -583.362549
-8.335943 327.235748 -583.403687
-8.358818 327.258820 -583.444824
-8.381105 327.258820 -583.444824
-8.403688 327.270386 -583.465393
-8.425977 327.270386 -583.465393
-8.448264 327.270386 -583.465393
-8.470551 327.270386 -583.465393
-8.492840 327.270386 -583.465393
-8.860786 324.421539 -578.386414
-8.882880 324.421539 -578.386414
-2.118165 327.190399 -583.362549
-2.140449 327.190399 -583.362549
-2.162733 327.190399 -583.362549
-2.185017 327.190399 -583.362549
-2.207300 327.190399 -583.362549
-2.229584 327.190399 -583.362549
-5.570785 327.109650 -583.218567
-5.592866 327.098114 -583.198059
-5.615143 327.098114 -583.198059
-5.637421 327.098114 -583.198059
-5.659698 327.098114 -583.198059
-5.681976 327.098114 -583.198059
-5.704052 327.086578 -583.177490
-5.726329 327.086578 -583.177490
-5.748606 327.086578 -583.177490
-7.111249 327.259613 -583.485962
-7.133537 327.259613 -583.485962
-7.155826 327.259613 -583.485962
-7.178114 327.259613 -583.485962
-7.200403 327.259613 -583.485962
-7.334652 327.282715 -583.527161
-7.356942 327.282715 -583.527161
-7.379232 327.282715 -583.527161
-7.401783 327.294250 -583.547729
-7.424074 327.294250 -583.547729
-7.446365 327.294250 -583.547729
-7.468656 327.294250 -583.547729
-7.490947 327.294250 -583.547729
-7.513238 327.294250 -583.547729
-7.535263 327.282715 -583.527161
-7.557553 327.282715 -583.527161
-7.579843 327.282715 -583.527161
-7.602133 327.282715 -583.527161
-7.735329 327.259613 -583.485962
-7.758164 327.282715 -583.527161
-7.780454 327.282715 -583.527161
-7.802744 327.282715 -583.527161
-7.979658 327.225006 -583.424255
-8.002227 327.236542 -583.444824
-8.024513 327.236542 -583.444824
-8.046801 327.236542 -583.444824
-8.069088 327.236542 -583.444824
-8.091089 327.225006 -583.424255
-8.112517 327.190399 -583.362549
-8.134228 327.167328 -583.321411
-8.156797 327.178864 -583.341980
-8.179080 327.178864 -583.341980
-8.201653 327.190399 -583.362549
-8.223936 327.190399 -583.362549
-8.246221 327.190399 -583.362549
-8.268504 327.190399 -583.362549
-8.290788 327.190399 -583.362549
-8.313365 327.201935 -583.383118
-8.335943 327.213470 -583.403687
-8.358818 327.236542 -583.444824
-8.381105 327.236542 -583.444824
-8.403392 327.236542 -583.444824
-8.425679 327.236542 -583.444824
-8.448264 327.248077 -583.465393
-8.470551 327.248077 -583.465393
-8.492840 327.248077 -583.465393
-8.515127 327.248077 -583.465393
-8.860786 324.399445 -578.386414
-8.882880 324.399445 -578.386414
-2.095807 327.156555 -583.341980
-2.118165 327.168091 -583.362549
-2.140449 327.168091 -583.362549
-2.162733 327.168091 -583.362549
-2.185017 327.168091 -583.362549
-2.207300 327.168091 -583.362549
-2.229584 327.168091 -583.362549
-2.251868 327.168091 -583.362549
-2.363287 327.168091 -583.362549
-2.385739 327.191193 -583.403687
-2.408025 327.191193 -583.403687
-5.570785 327.087372 -583.218567
-5.592866 327.075836 -583.198059
-5.615341 327.087372 -583.218567
-5.637421 327.075836 -583.198059
-5.659698 327.075836 -583.198059
-5.681976 327.075836 -583.198059
-5.704254 327.075836 -583.198059
-5.726531 327.075836 -583.198059
-5.748809 327.075836 -583.198059
-7.111249 327.237335 -583.485962
-7.133537 327.237335 -583.485962
-7.155826 327.237335 -583.485962
-7.178114 327.237335 -583.485962
-7.200403 327.237335 -583.485962
-7.289557 327.237335 -583.485962
-7.312362 327.260406 -583.527161
-7.334652 327.260406 -583.527161
-7.356942 327.260406 -583.527161
-7.379232 327.260406 -583.527161
-7.401522 327.260406 -583.527161
-7.423812 327.260406 -583.527161
-7.446103 327.260406 -583.527161
-7.468392 327.260406 -583.527161
-7.490683 327.260406 -583.527161
-7.512973 327.260406 -583.527161
-7.535263 327.260406 -583.527161
-7.557553 327.260406 -583.527161
-7.579843 327.260406 -583.527161
-7.602133 327.260406 -583.527161
-7.624155 327.248871 -583.506531
-7.668463 327.237335 -583.485962
-7.690752 327.237335 -583.485962
-7.713040 327.237335 -583.485962
-7.735329 327.237335 -583.485962
-7.757891 327.248871 -583.506531
-7.780454 327.260406 -583.527161
-7.802744 327.260406 -583.527161
-7.825035 327.260406 -583.527161
-7.847325 327.260406 -583.527161
-7.957372 327.202728 -583.424255
-7.979658 327.202728 -583.424255
-8.001945 327.202728 -583.424255
-8.024231 327.202728 -583.424255
-8.046516 327.202728 -583.424255
-8.068803 327.202728 -583.424255
-8.091089 327.202728 -583.424255
-8.113090 327.191193 -583.403687
-8.134801 327.168091 -583.362549
-8.157084 327.168091 -583.362549
-8.179369 327.168091 -583.362549
-8.201653 327.168091 -583.362549
-8.223936 327.168091 -583.362549
-8.246221 327.168091 -583.362549
-8.268504 327.168091 -583.362549
-8.290788 327.168091 -583.362549
-8.313365 327.179657 -583.383118
-8.335649 327.179657 -583.383118
-8.358229 327.191193 -583.403687
-8.381105 327.214264 -583.444824
-8.403392 327.214264 -583.444824
-8.425679 327.214264 -583.444824
-8.447967 327.214264 -583.444824
-8.470551 327.225800 -583.465393
-8.492840 327.225800 -583.465393
-8.515127 327.225800 -583.465393
-8.537716 327.237335 -583.485962
-8.560609 327.260406 -583.527161
-8.582899 327.260406 -583.527161
-8.605189 327.260406 -583.527161
-8.627784 327.271973 -583.547729
-8.650074 327.271973 -583.547729
-8.917565 327.271973 -583.547729
-8.860786 324.377350 -578.386414
-2.095807 327.134277 -583.341980
-2.118165 327.145813 -583.362549
-2.140449 327.145813 -583.362549
-2.162733 327.145813 -583.362549
-2.185017 327.145813 -583.362549
-2.207300 327.145813 -583.362549
-2.229584 327.145813 -583.362549
-2.251868 327.145813 -583.362549
-2.274072 327.134277 -583.341980
-2.296355 327.134277 -583.341980
-2.318638 327.134277 -583.341980
-2.341003 327.145813 -583.362549
-2.363371 327.157349 -583.383118
-2.385739 327.168884 -583.403687
-2.408025 327.168884 -583.403687
-2.430310 327.168884 -583.403687
-5.570785 327.065094 -583.218567
-5.593063 327.065094 -583.218567
-5.615341 327.065094 -583.218567
-5.637620 327.065094 -583.218567
-5.659898 327.065094 -583.218567
-5.682177 327.065094 -583.218567
-5.704254 327.053558 -583.198059
-5.726531 327.053558 -583.198059
-7.133537 327.215057 -583.485962
-7.155826 327.215057 -583.485962
-7.178114 327.215057 -583.485962
-7.200403 327.215057 -583.485962
-7.222692 327.215057 -583.485962
-7.267269 327.215057 -583.485962
-7.290071 327.238129 -583.527161
-7.312362 327.238129 -583.527161
-7.334652 327.238129 -583.527161
-7.356942 327.238129 -583.527161
-7.379232 327.238129 -583.527161
-7.401522 327.238129 -583.527161
-7.423812 327.238129 -583.527161
-7.446103 327.238129 -583.527161
-7.468392 327.238129 -583.527161
-7.490683 327.238129 -583.527161
-7.512973 327.238129 -583.527161
-7.535263 327.238129 -583.527161
-7.557553 327.238129 -583.527161
-7.579843 327.238129 -583.527161
-7.602133 327.238129 -583.527161
-7.624424 327.238129 -583.527161
-7.646174 327.215057 -583.485962
-7.668463 327.215057 -583.485962
-7.690752 327.215057 -583.485962
-7.713040 327.215057 -583.485962
-7.735329 327.215057 -583.485962
-7.757891 327.226593 -583.506531
-7.780180 327.226593 -583.506531
-7.802744 327.238129 -583.527161
-7.825035 327.238129 -583.527161
-7.847325 327.238129 -583.527161
-7.957372 327.180420 -583.424255
-7.979658 327.180420 -583.424255
-8.001945 327.180420 -583.424255
-8.024231 327.180420 -583.424255
-8.046516 327.180420 -583.424255
-8.068803 327.180420 -583.424255
-8.091089 327.180420 -583.424255
-8.113090 327.168884 -583.403687
-8.134801 327.145813 -583.362549
-8.157084 327.145813 -583.362549
-8.179369 327.145813 -583.362549
-8.201653 327.145813 -583.362549
-8.223936 327.145813 -583.362549
-8.246221 327.145813 -583.362549
-8.268504 327.145813 -583.362549
-8.290788 327.145813 -583.362549
