35.013462 -61.659721 -368.410126
34.609806 -61.659721 -368.410126
34.206150 -61.659721 -368.410126
40.664642 -62.063377 -368.410126
40.260986 -62.063377 -368.410126
39.050018 -62.063377 -368.410126
38.646362 -62.063377 -368.410126
38.242706 -62.063377 -368.410126
37.839050 -62.063377 -368.410126
37.435394 -62.063377 -368.410126
37.031738 -62.063377 -368.410126
36.628082 -62.063377 -368.410126
36.224426 -62.063377 -368.410126
35.820770 -62.063377 -368.410126
35.417118 -62.063377 -368.410126
35.013462 -62.063377 -368.410126
34.609806 -62.063377 -368.410126
34.206150 -62.063377 -368.410126
33.802494 -62.063377 -368.410126
40.664642 -62.467033 -368.410126
40.260986 -62.467033 -368.410126
39.050018 -62.467033 -368.410126
38.646362 -62.467033 -368.410126
38.242706 -62.467033 -368.410126
37.839050 -62.467033 -368.410126
37.435394 -62.467033 -368.410126
37.031738 -62.467033 -368.410126
36.628082 -62.467033 -368.410126
36.224426 -62.467033 -368.410126
35.820770 -62.467033 -368.410126
35.417118 -62.467033 -368.410126
35.013462 -62.467033 -368.410126
34.609806 -62.467033 -368.410126
34.206150 -62.467033 -368.410126
33.802494 -62.467033 -368.410126
33.398838 -62.467033 -368.410126
32.995182 -62.467033 -368.410126
32.591526 -62.467033 -368.410126
40.664642 -62.870689 -368.410126
40.260986 -62.870689 -368.410126
39.050018 -62.870689 -368.410126
38.646362 -62.870689 -368.410126
38.242706 -62.870689 -368.410126
37.839050 -62.870689 -368.410126
37.435394 -62.870689 -368.410126
37.031738 -62.870689 -368.410126
36.628082 -62.870689 -368.410126
36.224426 -62.870689 -368.410126
35.820770 -62.870689 -368.410126
35.417118 -62.870689 -368.410126
35.013462 -62.870689 -368.410126
34.609806 -62.870689 -368.410126
34.206150 -62.870689 -368.410126
33.802494 -62.870689 -368.410126
33.398838 -62.870689 -368.410126
32.995182 -62.870689 -368.410126
32.591526 -62.870689 -368.410126
32.187870 -62.870689 -368.410126
40.664642 -63.274345 -368.410126
40.260986 -63.274345 -368.410126
39.050018 -63.274345 -368.410126
38.646362 -63.274345 -368.410126
38.242706 -63.274345 -368.410126
37.839050 -63.274345 -368.410126
37.435394 -63.274345 -368.410126
37.031738 -63.274345 -368.410126
36.628082 -63.274345 -368.410126
36.224426 -63.274345 -368.410126
35.820770 -63.274345 -368.410126
35.417118 -63.274345 -368.410126
35.013462 -63.274345 -368.410126
34.609806 -63.274345 -368.410126
34.206150 -63.274345 -368.410126
33.802494 -63.274345 -368.410126
33.398838 -63.274345 -368.410126
32.995182 -63.274345 -368.410126
32.591526 -63.274345 -368.410126
32.187870 -63.274345 -368.410126
31.784214 -63.274345 -368.410126
31.380558 -63.274345 -368.410126
30.976902 -63.274345 -368.410126
31.781578 -70.424126 -410.039185
40.664642 -63.678001 -368.410126
40.260986 -63.678001 -368.410126
39.857330 -63.678001 -368.410126
39.453674 -63.678001 -368.410126
39.050018 -63.678001 -368.410126
38.646362 -63.678001 -368.410126
38.242706 -63.678001 -368.410126
37.839050 -63.678001 -368.410126
37.435394 -63.678001 -368.410126
37.031738 -63.678001 -368.410126
36.628082 -63.678001 -368.410126
36.224426 -63.678001 -368.410126
35.820770 -63.678001 -368.410126
35.417118 -63.678001 -368.410126
35.013462 -63.678001 -368.410126
34.609806 -63.678001 -368.410126
34.206150 -63.678001 -368.410126
33.802494 -63.678001 -368.410126
33.398838 -63.678001 -368.410126
32.995182 -63.678001 -368.410126
32.591526 -63.678001 -368.410126
32.187870 -63.678001 -368.410126
31.784214 -63.678001 -368.410126
31.380558 -63.678001 -368.410126
30.976902 -63.678001 -368.410126
30.573246 -63.678001 -368.410126
30.169590 -63.678001 -368.410126
29.765934 -63.678001 -368.410126
29.362278 -63.678001 -368.410126
32.230846 -70.873390 -410.039185
31.781578 -70.873390 -410.039185
31.332310 -70.873390 -410.039185
40.664642 -64.081657 -368.410126
40.260986 -64.081657 -368.410126
39.857330 -64.081657 -368.410126
39.453674 -64.081657 -368.410126
39.050018 -64.081657 -368.410126
38.646362 -64.081657 -368.410126
38.242706 -64.081657 -368.410126
37.839050 -64.081657 -368.410126
37.435394 -64.081657 -368.410126
37.031738 -64.081657 -368.410126
36.628082 -64.081657 -368.410126
36.224426 -64.081657 -368.410126
35.820770 -64.081657 -368.410126
35.417118 -64.081657 -368.410126
35.013462 -64.081657 -368.410126
34.609806 -64.081657 -368.410126
34.206150 -64.081657 -368.410126
33.802494 -64.081657 -368.410126
33.398838 -64.081657 -368.410126
32.995182 -64.081657 -368.410126
32.591526 -64.081657 -368.410126
32.187870 -64.081657 -368.410126
31.784214 -64.081657 -368.410126
31.380558 -64.081657 -368.410126
30.976902 -64.081657 -368.410126
30.573246 -64.081657 -368.410126
30.169590 -64.081657 -368.410126
29.765934 -64.081657 -368.410126
30.932482 -67.508545 -388.111572
32.230846 -71.322662 -410.039185
31.781578 -71.322662 -410.039185
31.332310 -71.322662 -410.039185
30.883043 -71.322662 -410.039185
40.664642 -64.485313 -368.410126
40.260986 -64.485313 -368.410126
39.857330 -64.485313 -368.410126
39.453674 -64.485313 -368.410126
39.050018 -64.485313 -368.410126
38.646362 -64.485313 -368.410126
38.242706 -64.485313 -368.410126
37.839050 -64.485313 -368.410126
37.435394 -64.485313 -368.410126
37.031738 -64.485313 -368.410126
36.628082 -64.485313 -368.410126
36.224426 -64.485313 -368.410126
35.820770 -64.485313 -368.410126
35.417118 -64.485313 -368.410126
35.013462 -64.485313 -368.410126
34.609806 -64.485313 -368.410126
34.206150 -64.485313 -368.410126
33.802494 -64.485313 -368.410126
33.398838 -64.485313 -368.410126
32.995182 -64.485313 -368.410126
32.591526 -64.485313 -368.410126
32.187870 -64.485313 -368.410126
31.784214 -64.485313 -368.410126
31.380558 -64.485313 -368.410126
30.976902 -64.485313 -368.410126
30.573246 -64.485313 -368.410126
30.169590 -64.485313 -368.410126
29.765934 -64.485313 -368.410126
32.680115 -71.771927 -410.039185
32.230846 -71.771927 -410.039185
31.781578 -71.771927 -410.039185
31.332310 -71.771927 -410.039185
30.883043 -71.771927 -410.039185
30.433775 -71.771927 -410.039185
39.857330 -64.888969 -368.410126
39.453674 -64.888969 -368.410126
39.050018 -64.888969 -368.410126
38.646362 -64.888969 -368.410126
38.242706 -64.888969 -368.410126
37.839050 -64.888969 -368.410126
37.435394 -64.888969 -368.410126
37.031738 -64.888969 -368.410126
36.628082 -64.888969 -368.410126
36.224426 -64.888969 -368.410126
35.820770 -64.888969 -368.410126
35.417118 -64.888969 -368.410126
35.013462 -64.888969 -368.410126
34.609806 -64.888969 -368.410126
34.206150 -64.888969 -368.410126
33.802494 -64.888969 -368.410126
33.398838 -64.888969 -368.410126
32.995182 -64.888969 -368.410126
32.591526 -64.888969 -368.410126
32.187870 -64.888969 -368.410126
31.784214 -64.888969 -368.410126
31.380558 -64.888969 -368.410126
30.976902 -64.888969 -368.410126
30.573246 -64.888969 -368.410126
30.169590 -64.888969 -368.410126
31.357725 -68.359032 -388.111572
32.680115 -72.221191 -410.039185
32.230846 -72.221191 -410.039185
31.781578 -72.221191 -410.039185
31.332310 -72.221191 -410.039185
30.883043 -72.221191 -410.039185
30.433775 -72.221191 -410.039185
39.453674 -65.292625 -368.410126
39.050018 -65.292625 -368.410126
38.646362 -65.292625 -368.410126
38.242706 -65.292625 -368.410126
37.839050 -65.292625 -368.410126
37.435394 -65.292625 -368.410126
37.031738 -65.292625 -368.410126
36.628082 -65.292625 -368.410126
36.224426 -65.292625 -368.410126
35.820770 -65.292625 -368.410126
35.417118 -65.292625 -368.410126
35.013462 -65.292625 -368.410126
34.609806 -65.292625 -368.410126
34.206150 -65.292625 -368.410126
33.802494 -65.292625 -368.410126
33.398838 -65.292625 -368.410126
32.995182 -65.292625 -368.410126
32.591526 -65.292625 -368.410126
32.187870 -65.292625 -368.410126
31.784214 -65.292625 -368.410126
31.380558 -65.292625 -368.410126
30.976902 -65.292625 -368.410126
30.573246 -65.292625 -368.410126
30.169590 -65.292625 -368.410126
31.357725 -68.784271 -388.111572
32.680115 -72.670464 -410.039185
32.230846 -72.670464 -410.039185
31.781578 -72.670464 -410.039185
31.332310 -72.670464 -410.039185
30.883043 -72.670464 -410.039185
30.433775 -72.670464 -410.039185
39.453674 -65.696281 -368.410126
39.050018 -65.696281 -368.410126
38.646362 -65.696281 -368.410126
38.242706 -65.696281 -368.410126
37.839050 -65.696281 -368.410126
37.435394 -65.696281 -368.410126
37.031738 -65.696281 -368.410126
36.628082 -65.696281 -368.410126
36.224426 -65.696281 -368.410126
35.820770 -65.696281 -368.410126
35.417118 -65.696281 -368.410126
35.013462 -65.696281 -368.410126
34.609806 -65.696281 -368.410126
34.206150 -65.696281 -368.410126
33.802494 -65.696281 -368.410126
33.398838 -65.696281 -368.410126
32.995182 -65.696281 -368.410126
32.591526 -65.696281 -368.410126
32.187870 -65.696281 -368.410126
31.784214 -65.696281 -368.410126
31.380558 -65.696281 -368.410126
30.976902 -65.696281 -368.410126
31.357725 -69.209511 -388.111572
32.680115 -73.119728 -410.039185
32.230846 -73.119728 -410.039185
31.781578 -73.119728 -410.039185
31.332310 -73.119728 -410.039185
30.883043 -73.119728 -410.039185
30.433775 -73.119728 -410.039185
39.453674 -66.099937 -368.410126
39.050018 -66.099937 -368.410126
38.646362 -66.099937 -368.410126
38.242706 -66.099937 -368.410126
37.839050 -66.099937 -368.410126
37.435394 -66.099937 -368.410126
37.031738 -66.099937 -368.410126
36.628082 -66.099937 -368.410126
36.224426 -66.099937 -368.410126
35.820770 -66.099937 -368.410126
35.417118 -66.099937 -368.410126
35.013462 -66.099937 -368.410126
34.609806 -66.099937 -368.410126
34.206150 -66.099937 -368.410126
33.802494 -66.099937 -368.410126
33.398838 -66.099937 -368.410126
32.995182 -66.099937 -368.410126
32.591526 -66.099937 -368.410126
32.187870 -66.099937 -368.410126
31.784214 -66.099937 -368.410126
31.380558 -66.099937 -368.410126
31.357725 -69.634758 -388.111572
32.680115 -73.569000 -410.039185
32.230846 -73.569000 -410.039185
31.781578 -73.569000 -410.039185
31.332310 -73.569000 -410.039185
30.883043 -73.569000 -410.039185
39.050018 -66.503593 -368.410126
38.646362 -66.503593 -368.410126
38.242706 -66.503593 -368.410126
37.839050 -66.503593 -368.410126
37.435394 -66.503593 -368.410126
37.031738 -66.503593 -368.410126
36.628082 -66.503593 -368.410126
36.224426 -66.503593 -368.410126
35.820770 -66.503593 -368.410126
35.417118 -66.503593 -368.410126
35.013462 -66.503593 -368.410126
34.609806 -66.503593 -368.410126
34.206150 -66.503593 -368.410126
33.802494 -66.503593 -368.410126
33.398838 -66.503593 -368.410126
32.995182 -66.503593 -368.410126
32.591526 -66.503593 -368.410126
32.187870 -66.503593 -368.410126
31.784214 -66.503593 -368.410126
31.380558 -66.503593 -368.410126
30.932482 -70.059998 -388.111572
32.230846 -74.018265 -410.039185
30.081999 -70.059998 -388.111572
29.656755 -70.059998 -388.111572
38.646362 -66.907249 -368.410126
38.242706 -66.907249 -368.410126
37.839050 -66.907249 -368.410126
37.435394 -66.907249 -368.410126
37.031738 -66.907249 -368.410126
36.628082 -66.907249 -368.410126
36.224426 -66.907249 -368.410126
35.820770 -66.907249 -368.410126
35.417118 -66.907249 -368.410126
35.013462 -66.907249 -368.410126
34.609806 -66.907249 -368.410126
34.206150 -66.907249 -368.410126
33.802494 -66.907249 -368.410126
33.398838 -66.907249 -368.410126
32.995182 -66.907249 -368.410126
32.591526 -66.907249 -368.410126
32.187870 -66.907249 -368.410126
31.784214 -66.907249 -368.410126
31.380558 -66.907249 -368.410126
38.242706 -67.310905 -368.410126
37.839050 -67.310905 -368.410126
37.435394 -67.310905 -368.410126
37.031738 -67.310905 -368.410126
36.628082 -67.310905 -368.410126
36.224426 -67.310905 -368.410126
35.820770 -67.310905 -368.410126
35.417118 -67.310905 -368.410126
35.013462 -67.310905 -368.410126
34.609806 -67.310905 -368.410126
34.206150 -67.310905 -368.410126
33.802494 -67.310905 -368.410126
33.398838 -67.310905 -368.410126
32.995182 -67.310905 -368.410126
32.591526 -67.310905 -368.410126
32.187870 -67.310905 -368.410126
31.784214 -67.310905 -368.410126
31.380558 -67.310905 -368.410126
30.976902 -67.310905 -368.410126
38.242706 -67.714561 -368.410126
37.839050 -67.714561 -368.410126
37.435394 -67.714561 -368.410126
37.031738 -67.714561 -368.410126
36.628082 -67.714561 -368.410126
36.224426 -67.714561 -368.410126
35.820770 -67.714561 -368.410126
35.417118 -67.714561 -368.410126
35.013462 -67.714561 -368.410126
34.609806 -67.714561 -368.410126
34.206150 -67.714561 -368.410126
33.802494 -67.714561 -368.410126
33.398838 -67.714561 -368.410126
32.995182 -67.714561 -368.410126
32.591526 -67.714561 -368.410126
32.187870 -67.714561 -368.410126
31.784214 -67.714561 -368.410126
31.380558 -67.714561 -368.410126
30.976902 -67.714561 -368.410126
30.573246 -67.714561 -368.410126
37.839050 -68.118217 -368.410126
37.435394 -68.118217 -368.410126
37.031738 -68.118217 -368.410126
36.628082 -68.118217 -368.410126
36.224426 -68.118217 -368.410126
35.820770 -68.118217 -368.410126
35.417118 -68.118217 -368.410126
35.013462 -68.118217 -368.410126
34.609806 -68.118217 -368.410126
34.206150 -68.118217 -368.410126
33.802494 -68.118217 -368.410126
33.398838 -68.118217 -368.410126
32.995182 -68.118217 -368.410126
32.591526 -68.118217 -368.410126
32.187870 -68.118217 -368.410126
31.784214 -68.118217 -368.410126
31.380558 -68.118217 -368.410126
30.976902 -68.118217 -368.410126
30.573246 -68.118217 -368.410126
30.169590 -68.118217 -368.410126
37.839050 -68.521873 -368.410126
37.435394 -68.521873 -368.410126
37.031738 -68.521873 -368.410126
36.628082 -68.521873 -368.410126
36.224426 -68.521873 -368.410126
35.820770 -68.521873 -368.410126
35.417118 -68.521873 -368.410126
35.013462 -68.521873 -368.410126
34.609806 -68.521873 -368.410126
34.206150 -68.521873 -368.410126
33.802494 -68.521873 -368.410126
33.398838 -68.521873 -368.410126
32.995182 -68.521873 -368.410126
32.591526 -68.521873 -368.410126
32.187870 -68.521873 -368.410126
31.784214 -68.521873 -368.410126
31.380558 -68.521873 -368.410126
30.976902 -68.521873 -368.410126
30.573246 -68.521873 -368.410126
30.169590 -68.521873 -368.410126
29.765934 -68.521873 -368.410126
37.839050 -68.925529 -368.410126
37.435394 -68.925529 -368.410126
37.031738 -68.925529 -368.410126
36.628082 -68.925529 -368.410126
36.224426 -68.925529 -368.410126
35.820770 -68.925529 -368.410126
35.417118 -68.925529 -368.410126
35.013462 -68.925529 -368.410126
34.609806 -68.925529 -368.410126
34.206150 -68.925529 -368.410126
33.802494 -68.925529 -368.410126
33.398838 -68.925529 -368.410126
32.995182 -68.925529 -368.410126
32.591526 -68.925529 -368.410126
32.187870 -68.925529 -368.410126
31.784214 -68.925529 -368.410126
31.380558 -68.925529 -368.410126
30.976902 -68.925529 -368.410126
30.573246 -68.925529 -368.410126
30.169590 -68.925529 -368.410126
29.765934 -68.925529 -368.410126
37.839050 -69.329185 -368.410126
37.435394 -69.329185 -368.410126
37.031738 -69.329185 -368.410126
36.628082 -69.329185 -368.410126
36.224426 -69.329185 -368.410126
35.820770 -69.329185 -368.410126
35.417118 -69.329185 -368.410126
35.013462 -69.329185 -368.410126
34.609806 -69.329185 -368.410126
34.206150 -69.329185 -368.410126
33.802494 -69.329185 -368.410126
33.398838 -69.329185 -368.410126
32.995182 -69.329185 -368.410126
32.591526 -69.329185 -368.410126
32.187870 -69.329185 -368.410126
31.784214 -69.329185 -368.410126
31.380558 -69.329185 -368.410126
30.976902 -69.329185 -368.410126
30.573246 -69.329185 -368.410126
30.169590 -69.329185 -368.410126
29.765934 -69.329185 -368.410126
29.362278 -69.329185 -368.410126
37.435394 -69.732841 -368.410126
37.031738 -69.732841 -368.410126
36.628082 -69.732841 -368.410126
36.224426 -69.732841 -368.410126
35.820770 -69.732841 -368.410126
35.417118 -69.732841 -368.410126
35.013462 -69.732841 -368.410126
33.802494 -69.732841 -368.410126
33.398838 -69.732841 -368.410126
32.995182 -69.732841 -368.410126
32.591526 -69.732841 -368.410126
32.187870 -69.732841 -368.410126
31.784214 -69.732841 -368.410126
31.380558 -69.732841 -368.410126
30.976902 -69.732841 -368.410126
30.573246 -69.732841 -368.410126
30.169590 -69.732841 -368.410126
29.765934 -69.732841 -368.410126
29.362278 -69.732841 -368.410126
28.958624 -69.732841 -368.410126
28.554968 -69.732841 -368.410126
28.151312 -69.732841 -368.410126
37.435394 -70.136497 -368.410126
37.031738 -70.136497 -368.410126
36.628082 -70.136497 -368.410126
36.224426 -70.136497 -368.410126
35.820770 -70.136497 -368.410126
35.417118 -70.136497 -368.410126
33.398838 -70.136497 -368.410126
32.995182 -70.136497 -368.410126
32.591526 -70.136497 -368.410126
32.187870 -70.136497 -368.410126
31.784214 -70.136497 -368.410126
31.380558 -70.136497 -368.410126
30.976902 -70.136497 -368.410126
30.573246 -70.136497 -368.410126
30.169590 -70.136497 -368.410126
29.765934 -70.136497 -368.410126
29.362278 -70.136497 -368.410126
28.958624 -70.136497 -368.410126
28.554968 -70.136497 -368.410126
28.151312 -70.136497 -368.410126
27.747656 -70.136497 -368.410126
37.031738 -70.540154 -368.410126
36.628082 -70.540154 -368.410126
38.161598 -74.312416 -388.111572
37.736355 -74.312416 -388.111572
35.417118 -70.540154 -368.410126
32.591526 -70.540154 -368.410126
32.187870 -70.540154 -368.410126
31.784214 -70.540154 -368.410126
31.380558 -70.540154 -368.410126
30.976902 -70.540154 -368.410126
30.573246 -70.540154 -368.410126
30.169590 -70.540154 -368.410126
29.765934 -70.540154 -368.410126
29.362278 -70.540154 -368.410126
28.958624 -70.540154 -368.410126
28.554968 -70.540154 -368.410126
28.151312 -70.540154 -368.410126
27.747656 -70.540154 -368.410126
27.344000 -70.540154 -368.410126
38.586842 -74.737663 -388.111572
40.317661 -78.960205 -410.039185
39.868393 -78.960205 -410.039185
32.187870 -70.943810 -368.410126
31.784214 -70.943810 -368.410126
31.380558 -70.943810 -368.410126
30.976902 -70.943810 -368.410126
30.573246 -70.943810 -368.410126
30.169590 -70.943810 -368.410126
29.765934 -70.943810 -368.410126
29.362278 -70.943810 -368.410126
28.958624 -70.943810 -368.410126
28.554968 -70.943810 -368.410126
28.151312 -70.943810 -368.410126
27.747656 -70.943810 -368.410126
27.344000 -70.943810 -368.410126
40.766930 -79.409477 -410.039185
40.317661 -79.409477 -410.039185
39.868393 -79.409477 -410.039185
31.784214 -71.347466 -368.410126
31.380558 -71.347466 -368.410126
30.976902 -71.347466 -368.410126
30.573246 -71.347466 -368.410126
30.169590 -71.347466 -368.410126
29.765934 -71.347466 -368.410126
29.362278 -71.347466 -368.410126
28.958624 -71.347466 -368.410126
28.554968 -71.347466 -368.410126
28.151312 -71.347466 -368.410126
39.012081 -75.588142 -388.111572
40.766930 -79.858742 -410.039185
40.317661 -79.858742 -410.039185
39.868393 -79.858742 -410.039185
31.380558 -71.751122 -368.410126
30.976902 -71.751122 -368.410126
30.573246 -71.751122 -368.410126
30.169590 -71.751122 -368.410126
29.765934 -71.751122 -368.410126
29.362278 -71.751122 -368.410126
28.958624 -71.751122 -368.410126
28.554968 -71.751122 -368.410126
39.012081 -76.013390 -388.111572
40.766930 -80.308014 -410.039185
40.317661 -80.308014 -410.039185
39.868393 -80.308014 -410.039185
35.417118 -72.154778 -368.410126
29.765934 -72.154778 -368.410126
29.362278 -72.154778 -368.410126
28.958624 -72.154778 -368.410126
28.554968 -72.154778 -368.410126
39.012081 -76.438629 -388.111572
40.766930 -80.757278 -410.039185
40.317661 -80.757278 -410.039185
39.868393 -80.757278 -410.039185
28.554968 -72.558434 -368.410126
28.151312 -72.558434 -368.410126
40.766930 -81.206543 -410.039185
40.317661 -81.206543 -410.039185
57.618187 -109.291107 -368.410126
57.214531 -109.291107 -368.410126
56.810875 -109.291107 -368.410126
56.407219 -109.291107 -368.410126
58.021843 -109.694763 -368.410126
57.618187 -109.694763 -368.410126
57.214531 -109.694763 -368.410126
56.810875 -109.694763 -368.410126
56.407219 -109.694763 -368.410126
56.003563 -109.694763 -368.410126
58.021843 -110.098419 -368.410126
57.618187 -110.098419 -368.410126
57.214531 -110.098419 -368.410126
56.810875 -110.098419 -368.410126
56.407219 -110.098419 -368.410126
56.003563 -110.098419 -368.410126
-0.297927 9.296609 31.108212
-0.263843 9.296609 31.108212
58.021843 -110.502075 -368.410126
57.618187 -110.502075 -368.410126
57.214531 -110.502075 -368.410126
56.810875 -110.502075 -368.410126
56.407219 -110.502075 -368.410126
56.003563 -110.502075 -368.410126
55.599907 -110.502075 -368.410126
-0.297927 9.330693 31.108212
-0.263843 9.330693 31.108212
-0.229758 9.330693 31.108212
-0.195674 9.330693 31.108212
-0.161590 9.330693 31.108212
-0.127505 9.330693 31.108212
-0.093421 9.330693 31.108212
-0.059337 9.330693 31.108212
58.425499 -110.905731 -368.410126
58.021843 -110.905731 -368.410126
57.618187 -110.905731 -368.410126
57.214531 -110.905731 -368.410126
56.810875 -110.905731 -368.410126
56.407219 -110.905731 -368.410126
56.003563 -110.905731 -368.410126
55.599907 -110.905731 -368.410126
-0.333441 9.405091 31.242126
-0.297927 9.364778 31.108212
-0.263843 9.364778 31.108212
-0.229758 9.364778 31.108212
-0.195674 9.364778 31.108212
-0.161590 9.364778 31.108212
-0.127505 9.364778 31.108212
-0.093421 9.364778 31.108212
-0.059337 9.364778 31.108212
-0.025252 9.364778 31.108212
58.425499 -111.309387 -368.410126
58.021843 -111.309387 -368.410126
57.618187 -111.309387 -368.410126
57.214531 -111.309387 -368.410126
56.810875 -111.309387 -368.410126
56.407219 -111.309387 -368.410126
56.003563 -111.309387 -368.410126
55.599907 -111.309387 -368.410126
55.196251 -111.309387 -368.410126
54.792595 -111.309387 -368.410126
54.388939 -111.309387 -368.410126
63.683434 -131.305496 -434.592926
67.233292 -139.669083 -462.274597
76.468163 -160.059219 -529.761597
88.860352 -187.420547 -620.321716
106.362900 -226.065308 -748.227478
132.958069 -284.786102 -942.580750
178.217621 -384.716949 -1273.330322
272.410828 -592.690857 -1961.679199
588.278809 -1290.111694 -4269.992188
-427.752136 953.234131 3154.999756
-226.964020 509.903931 1687.672363
-153.653641 348.038269 1151.931763
-115.672142 264.177002 874.369080
-92.440262 212.882172 704.594177
-76.763252 178.268127 590.029175
-65.471321 153.336105 507.509521
-56.950363 134.522247 445.239685
-50.291874 119.820633 396.580505
-44.945377 108.015839 357.509186
-40.557880 98.328468 325.446075
-36.892597 90.235703 298.660736
-33.784763 83.373756 275.949188
-31.116194 77.481689 256.447723
-28.799906 72.367439 239.520660
-26.770462 67.886528 224.689819
-24.977686 63.928173 211.588501
-23.382460 60.405991 199.930832
-21.953836 57.251659 189.490677
-20.667009 54.410408 180.086746
-1.032215 11.057761 36.598808
-0.982208 10.947350 36.233372
-0.838006 10.628959 35.179565
-0.791785 10.526904 34.841789
-0.746443 10.426791 34.510437
-0.701955 10.328565 34.185326
-0.658298 10.232171 33.866283
-0.615448 10.137561 33.553143
-0.573383 10.044683 33.245739
-0.451689 9.775990 32.356422
-0.412558 9.689591 32.070461
-0.370865 9.521297 31.513441
-0.333441 9.439322 31.242126
-0.297927 9.398862 31.108212
-0.263843 9.398862 31.108212
-0.229758 9.398862 31.108212
-0.195674 9.398862 31.108212
-0.161590 9.398862 31.108212
-0.127505 9.398862 31.108212
-0.093421 9.398862 31.108212
-0.059337 9.398862 31.108212
-0.025252 9.398862 31.108212
0.008832 9.398862 31.108212
0.042916 9.398862 31.108212
0.077001 9.398862 31.108212
0.111085 9.398862 31.108212
0.145169 9.398862 31.108212
58.425499 -111.713043 -368.410126
58.021843 -111.713043 -368.410126
57.618187 -111.713043 -368.410126
57.214531 -111.713043 -368.410126
56.810875 -111.713043 -368.410126
56.407219 -111.713043 -368.410126
56.003563 -111.713043 -368.410126
55.599907 -111.713043 -368.410126
55.196251 -111.713043 -368.410126
54.792595 -111.713043 -368.410126
60.534698 -124.336227 -410.039185
67.739792 -140.175583 -462.274597
77.048607 -160.639664 -529.761597
89.540024 -188.100220 -620.321716
107.182709 -226.885117 -748.227478
133.990829 -285.818878 -942.580750
179.612762 -386.112091 -1273.330322
274.560181 -594.840210 -1961.679199
592.957336 -1294.790161 -4269.992188
-431.208984 956.690918 3154.999756
-228.813156 511.753052 1687.672363
-154.915787 349.300415 1151.931763
-116.630165 265.135040 874.369080
-93.212265 213.654175 704.594177
-77.409737 178.914612 590.029175
-66.027390 153.892166 507.509521
-57.438198 135.010086 445.239685
-50.726395 120.255157 396.580505
-45.337090 108.407547 357.509186
-40.914463 98.685043 325.446075
-37.219830 90.562935 298.660736
-34.087112 83.676102 275.949188
-31.397175 77.762672 256.447723
-29.062342 72.629875 239.520660
-27.016649 68.132721 224.689819
-25.209518 64.160004 211.588501
-23.601519 60.625050 199.930832
-22.161455 57.459278 189.490677
-20.864325 54.607723 180.086746
-19.689854 52.025818 171.572067
-19.501867 52.025818 171.572067
-1.924932 13.076086 43.122650
-1.855633 12.922521 42.616219
-1.787942 12.772521 42.121544
-1.721805 12.625963 41.638222
-1.657168 12.482731 41.165867
-1.593981 12.342711 40.704109
-1.532196 12.205799 40.252594
-1.471767 12.071890 39.810986
-1.412649 11.940887 39.378963
-1.354801 11.812698 38.956215
-1.298181 11.687231 38.542450
-1.242752 11.564402 38.137379
-1.188475 11.444128 37.740738
-1.135316 11.326329 37.352257
-1.072315 11.097861 36.598808
-1.021908 10.987049 36.233372
-0.972498 10.878428 35.875156
-0.933190 10.878428 35.875156
-0.876551 10.667503 35.179565
-0.829960 10.565080 34.841789
-0.784255 10.464603 34.510437
-0.739411 10.366020 34.185326
-0.695404 10.269278 33.866283
-0.652211 10.174323 33.553143
-0.609809 10.081110 33.245739
-0.568177 9.989588 32.943920
-0.532082 9.989588 32.943920
-0.487141 9.811441 32.356422
-0.447697 9.724730 32.070461
-0.408944 9.639537 31.789513
-0.370865 9.555824 31.513441
-0.336336 9.555824 31.513441
-0.299209 9.473554 31.242126
-0.263843 9.432946 31.108212
-0.229758 9.432946 31.108212
-0.195674 9.432946 31.108212
-0.161590 9.432946 31.108212
-0.127505 9.432946 31.108212
-0.093421 9.432946 31.108212
-0.059337 9.432946 31.108212
-0.025252 9.432946 31.108212
0.008832 9.432946 31.108212
0.042916 9.432946 31.108212
0.077001 9.432946 31.108212
0.111085 9.432946 31.108212
0.145169 9.432946 31.108212
0.179254 9.432946 31.108212
0.213338 9.432946 31.108212
0.247422 9.432946 31.108212
0.281507 9.432946 31.108212
0.315591 9.432946 31.108212
0.349675 9.432946 31.108212
0.383760 9.432946 31.108212
58.425499 -112.116699 -368.410126
58.021843 -112.116699 -368.410126
57.618187 -112.116699 -368.410126
57.214531 -112.116699 -368.410126
56.810875 -112.116699 -368.410126
56.407219 -112.116699 -368.410126
56.003563 -112.116699 -368.410126
55.599907 -112.116699 -368.410126
55.196251 -112.116699 -368.410126
54.792595 -112.116699 -368.410126
60.534698 -124.785492 -410.039185
67.739792 -140.682083 -462.274597
77.048607 -161.220108 -529.761597
89.540024 -188.779892 -620.321716
107.182709 -227.704926 -748.227478
133.990829 -286.851624 -942.580750
179.612762 -387.507233 -1273.330322
274.560181 -596.989563 -1961.679199
592.957336 -1299.468628 -4269.992188
-431.208984 960.147766 3154.999756
-228.813156 513.602173 1687.672363
-154.915787 350.562561 1151.931763
-116.630165 266.093048 874.369080
-93.212265 214.426178 704.594177
-77.409737 179.561081 590.029175
-66.027390 154.448227 507.509521
-57.438198 135.497925 445.239685
-50.726395 120.689674 396.580505
-45.337090 108.799263 357.509186
-40.914463 99.041626 325.446075
-37.219830 90.890167 298.660736
-34.087112 83.978455 275.949188
-31.397175 78.043648 256.447723
-29.062342 72.892311 239.520660
-27.016649 68.378906 224.689819
-25.209518 64.391830 211.588501
-23.601519 60.844109 199.930832
-22.161455 57.666897 189.490677
-20.864325 54.805038 180.086746
-19.689854 52.213806 171.572067
-19.501867 52.213806 171.572067
-8.091070 26.836603 88.183800
-7.804784 26.199913 86.091667
-7.531767 25.592733 84.096504
-7.271118 25.013060 82.191719
-7.022015 24.459063 80.371307
-6.783706 23.929073 78.629791
-6.555507 23.421566 76.962151
-6.336786 22.935139 75.363770
-6.126965 22.468504 73.830429
-5.925512 22.020479 72.358246
-5.731936 21.589973 70.943619
-5.545784 21.175978 69.583252
-5.366636 20.777559 68.274071
-5.194105 20.393856 67.013237
-5.027831 20.024069 65.798134
-4.867479 19.667452 64.626312
-4.712739 19.323317 63.495495
-4.563321 18.991016 62.403572
-4.418955 18.669950 61.348568
-4.279389 18.359562 60.328644
-4.144389 18.059324 59.342079
-4.013732 17.768749 58.387260
-3.887213 17.487377 57.462685
-3.764639 17.214775 56.566933
-3.645828 16.950542 55.698677
-3.530609 16.694300 54.856674
-3.418821 16.445688 54.039749
-3.310314 16.204372 53.246796
-3.204946 15.970037 52.476780
-3.102581 15.742382 51.728718
-3.003094 15.521127 51.001682
-2.906365 15.306004 50.294800
-2.812280 15.096763 49.607243
-2.720733 14.893166 48.938232
-2.631623 14.694987 48.287025
-2.544852 14.502013 47.652924
-2.460331 14.314042 47.035259
-2.377974 14.130881 46.433403
-2.297697 13.952349 45.846752
-2.219423 13.778271 45.274742
-2.143079 13.608483 44.716827
-2.068593 13.442830 44.172497
-1.995899 13.281160 43.641262
-1.924932 13.123334 43.122650
-1.855633 12.969213 42.616219
-1.787942 12.818672 42.121544
-1.721805 12.671585 41.638222
-1.657168 12.527835 41.165867
-1.593981 12.387310 40.704109
-1.532196 12.249902 40.252594
-1.471767 12.115510 39.810986
-1.412649 11.984034 39.378963
-1.354801 11.855381 38.956215
-1.298181 11.729462 38.542450
-1.242752 11.606188 38.137379
-1.188475 11.485479 37.740738
-1.135316 11.367255 37.352257
-1.072315 11.137961 36.598808
-1.021908 11.026749 36.233372
-0.972498 10.917735 35.875156
-0.933190 10.917735 35.875156
-0.876551 10.706049 35.179565
-0.829960 10.603254 34.841789
-0.784255 10.502416 34.510437
-0.739411 10.403476 34.185326
-0.695404 10.306384 33.866283
-0.652211 10.211086 33.553143
-0.609809 10.117536 33.245739
-0.568177 10.025683 32.943920
-0.532082 10.025683 32.943920
-0.487141 9.846893 32.356422
-0.447697 9.759869 32.070461
-0.408944 9.674368 31.789513
-0.374113 9.674368 31.789513
-0.229758 9.467031 31.108212
-0.195674 9.467031 31.108212
-0.161590 9.467031 31.108212
-0.127505 9.467031 31.108212
-0.093421 9.467031 31.108212
-0.059337 9.467031 31.108212
-0.025252 9.467031 31.108212
0.008832 9.467031 31.108212
0.042916 9.467031 31.108212
0.077001 9.467031 31.108212
0.111085 9.467031 31.108212
0.145169 9.467031 31.108212
0.179254 9.467031 31.108212
0.213338 9.467031 31.108212
0.247422 9.467031 31.108212
0.281507 9.467031 31.108212
0.315591 9.467031 31.108212
0.349675 9.467031 31.108212
0.383760 9.467031 31.108212
0.417844 9.467031 31.108212
0.451928 9.467031 31.108212
0.486013 9.467031 31.108212
0.520097 9.467031 31.108212
58.829155 -112.520355 -368.410126
58.425499 -112.520355 -368.410126
58.021843 -112.520355 -368.410126
57.618187 -112.520355 -368.410126
57.214531 -112.520355 -368.410126
56.810875 -112.520355 -368.410126
56.407219 -112.520355 -368.410126
56.003563 -112.520355 -368.410126
55.599907 -112.520355 -368.410126
55.196251 -112.520355 -368.410126
54.792595 -112.520355 -368.410126
60.534698 -125.234764 -410.039185
67.739792 -141.188583 -462.274597
77.048607 -161.800552 -529.761597
89.540024 -189.459564 -620.321716
107.182709 -228.524734 -748.227478
133.990829 -287.884399 -942.580750
179.612762 -388.902374 -1273.330322
274.560181 -599.138916 -1961.679199
592.957336 -1304.147095 -4269.992188
-431.208984 963.604614 3154.999756
-228.813156 515.451355 1687.672363
-154.915787 351.824677 1151.931763
-116.630165 267.051086 874.369080
-93.212265 215.198181 704.594177
-77.409737 180.207565 590.029175
-66.027390 155.004303 507.509521
-57.438198 135.985748 445.239685
-50.726395 121.124199 396.580505
-45.337090 109.190971 357.509186
-40.914463 99.398209 325.446075
-37.219830 91.217400 298.660736
-34.087112 84.280800 275.949188
-31.397175 78.324631 256.447723
-29.062342 73.154747 239.520660
-27.016649 68.625092 224.689819
-25.209518 64.623665 211.588501
-23.601519 61.063164 199.930832
-22.161455 57.874516 189.490677
-20.864325 55.002357 180.086746
-19.689854 52.401791 171.572067
-19.501867 52.401791 171.572067
-8.187691 26.933224 88.183800
-7.899112 26.294241 86.091667
-7.623909 25.684875 84.096504
-7.531767 25.684875 84.096504
-7.110075 24.547123 80.371307
-6.869859 24.015226 78.629791
-6.639832 23.505890 76.962151
-6.419360 23.017712 75.363770
-6.207859 22.549398 73.830429
-6.004793 22.099760 72.358246
-5.809667 21.667704 70.943619
-5.622024 21.252216 69.583252
-5.441442 20.852365 68.274071
-5.267529 20.467281 67.013237
-5.099924 20.096161 65.798134
-4.938288 19.738262 64.626312
-4.782309 19.392885 63.495495
-4.631695 19.059389 62.403572
-4.486173 18.737169 61.348568
-4.345490 18.425663 60.328644
-4.209408 18.124344 59.342079
-4.077705 17.832722 58.387260
-3.950174 17.550337 57.462685
-3.826618 17.276754 56.566933
-3.706855 17.011570 55.698677
-3.590714 16.754404 54.856674
-3.478031 16.504898 54.039749
-3.368655 16.262714 53.246796
-3.262443 16.027534 52.476780
-3.159259 15.799060 51.728718
-3.058975 15.577007 51.001682
-2.961471 15.361111 50.294800
-2.866633 15.151116 49.607243
-2.774353 14.946786 48.938232
-2.684529 14.747893 48.287025
-2.597064 14.554225 47.652924
-2.511867 14.365577 47.035259
-2.428849 14.181757 46.433403
-2.347930 14.002582 45.846752
-2.269030 13.827877 45.274742
-2.192074 13.657478 44.716827
-2.116992 13.491228 44.172497
-2.043715 13.328978 43.641262
-1.972181 13.170582 43.122650
-1.902326 13.015907 42.616219
-1.834093 12.864823 42.121544
-1.767426 12.717207 41.638222
-1.702272 12.572939 41.165867
-1.638579 12.431908 40.704109
-1.576300 12.294005 40.252594
-1.515386 12.159129 39.810986
-1.455795 12.027181 39.378963
-1.397484 11.898065 38.956215
-1.340411 11.771691 38.542450
-1.284538 11.647974 38.137379
-1.229826 11.526831 37.740738
-1.176242 11.408181 37.352257
-1.123749 11.291949 36.971695
-1.072315 11.178061 36.598808
-1.021908 11.066448 36.233372
-0.972498 10.957043 35.875156
-0.924055 10.849778 35.523956
-0.876551 10.744594 35.179565
-0.829960 10.641430 34.841789
-0.784255 10.540228 34.510437
-0.746443 10.540228 34.510437
-0.701955 10.440932 34.185326
-0.652211 10.247849 33.553143
-0.609809 10.153962 33.245739
-0.568177 10.061779 32.943920
-0.527295 9.971255 32.647526
-0.487141 9.882345 32.356422
-0.447697 9.795007 32.070461
-0.412558 9.795007 32.070461
-0.195674 9.501115 31.108212
-0.161590 9.501115 31.108212
-0.127505 9.501115 31.108212
-0.093421 9.501115 31.108212
-0.059337 9.501115 31.108212
-0.025252 9.501115 31.108212
0.008832 9.501115 31.108212
0.042916 9.501115 31.108212
0.077001 9.501115 31.108212
0.111085 9.501115 31.108212
0.145169 9.501115 31.108212
0.179254 9.501115 31.108212
0.213338 9.501115 31.108212
0.247422 9.501115 31.108212
0.281507 9.501115 31.108212
0.315591 9.501115 31.108212
0.349675 9.501115 31.108212
0.383760 9.501115 31.108212
0.417844 9.501115 31.108212
0.451928 9.501115 31.108212
0.486013 9.501115 31.108212
0.520097 9.501115 31.108212
0.554181 9.501115 31.108212
0.588266 9.501115 31.108212
0.622350 9.501115 31.108212
0.656434 9.501115 31.108212
0.690518 9.501115 31.108212
0.724603 9.501115 31.108212
58.829155 -112.924011 -368.410126
58.425499 -112.924011 -368.410126
58.021843 -112.924011 -368.410126
57.618187 -112.924011 -368.410126
57.214531 -112.924011 -368.410126
56.810875 -112.924011 -368.410126
56.407219 -112.924011 -368.410126
56.003563 -112.924011 -368.410126
55.599907 -112.924011 -368.410126
55.196251 -112.924011 -368.410126
54.792595 -112.924011 -368.410126
60.534698 -125.684029 -410.039185
67.739792 -141.695084 -462.274597
77.048607 -162.380997 -529.761597
89.540024 -190.139221 -620.321716
107.182709 -229.344543 -748.227478
133.990829 -288.917145 -942.580750
179.612762 -390.297546 -1273.330322
274.560181 -601.288269 -1961.679199
592.957336 -1308.825684 -4269.992188
-431.208984 967.061462 3154.999756
-228.813156 517.300476 1687.672363
-154.915787 353.086823 1151.931763
-116.630165 268.009094 874.369080
-93.212265 215.970184 704.594177
-77.409737 180.854034 590.029175
-66.027390 155.560364 507.509521
-57.438198 136.473587 445.239685
-50.726395 121.558716 396.580505
-45.337090 109.582687 357.509186
-40.914463 99.754791 325.446075
-37.219830 91.544632 298.660736
-34.087112 84.583153 275.949188
-31.397175 78.605614 256.447723
-29.062342 73.417183 239.520660
-27.016649 68.871277 224.689819
-25.209518 64.855499 211.588501
-23.601519 61.282223 199.930832
-22.161455 58.082134 189.490677
-20.864325 55.199673 180.086746
-19.689854 52.589779 171.572067
-19.501867 52.589779 171.572067
-8.707518 28.410673 92.688698
-8.187691 27.029844 88.183800
-7.899112 26.388569 86.091667
-7.623909 25.777018 84.096504
-7.531767 25.777018 84.096504
-7.110075 24.635183 80.371307
-6.869859 24.101377 78.629791
-6.639832 23.590216 76.962151
-6.419360 23.100286 75.363770
-6.207859 22.630291 73.830429
-6.004793 22.179041 72.358246
-5.809667 21.745434 70.943619
-5.622024 21.328457 69.583252
-5.441442 20.927170 68.274071
-5.267529 20.540705 67.013237
-5.099924 20.168255 65.798134
-4.938288 19.809071 64.626312
-4.782309 19.462456 63.495495
-4.631695 19.127764 62.403572
-4.486173 18.804386 61.348568
-4.345490 18.491762 60.328644
-4.209408 18.189363 59.342079
-4.077705 17.896696 58.387260
-3.950174 17.613297 57.462685
-3.826618 17.338734 56.566933
-3.706855 17.072598 55.698677
-3.590714 16.814510 54.856674
-3.478031 16.564108 54.039749
-3.368655 16.321054 53.246796
-3.262443 16.085032 52.476780
-3.159259 15.855738 51.728718
-3.058975 15.632889 51.001682
-2.961471 15.416217 50.294800
-2.866633 15.205469 49.607243
-2.774353 15.000406 48.938232
-2.684529 14.800800 48.287025
-2.597064 14.606437 47.652924
-2.511867 14.417112 47.035259
-2.428849 14.232633 46.433403
-2.347930 14.052814 45.846752
-2.269030 13.877483 45.274742
-2.192074 13.706473 44.716827
-2.116992 13.539627 44.172497
-2.043715 13.376794 43.641262
-1.972181 13.217830 43.122650
-1.902326 13.062600 42.616219
-1.834093 12.910975 42.121544
-1.767426 12.762828 41.638222
-1.702272 12.618043 41.165867
-1.638579 12.476506 40.704109
-1.576300 12.338109 40.252594
-1.515386 12.202749 39.810986
-1.455795 12.070327 39.378963
-1.397484 11.940747 38.956215
-1.340411 11.813921 38.542450
-1.284538 11.689760 38.137379
-1.229826 11.568182 37.740738
-1.176242 11.449106 37.352257
-1.123749 11.332458 36.971695
-1.072315 11.218162 36.598808
-1.032215 11.218162 36.598808
-0.982208 11.106149 36.233372
-0.933190 10.996349 35.875156
-0.885132 10.888700 35.523956
-0.838006 10.783139 35.179565
-0.791785 10.679605 34.841789
-0.615448 10.284613 33.553143
-0.573383 10.190389 33.245739
-0.532082 10.097875 32.943920
-0.491524 10.007026 32.647526
-0.451689 9.917797 32.356422
-0.195674 9.535199 31.108212
-0.161590 9.535199 31.108212
-0.127505 9.535199 31.108212
-0.093421 9.535199 31.108212
-0.059337 9.535199 31.108212
-0.025252 9.535199 31.108212
0.008832 9.535199 31.108212
0.042916 9.535199 31.108212
0.111085 9.535199 31.108212
0.145169 9.535199 31.108212
0.179254 9.535199 31.108212
0.213338 9.535199 31.108212
0.247422 9.535199 31.108212
0.281507 9.535199 31.108212
0.315591 9.535199 31.108212
0.349675 9.535199 31.108212
0.383760 9.535199 31.108212
0.417844 9.535199 31.108212
0.451928 9.535199 31.108212
0.486013 9.535199 31.108212
0.520097 9.535199 31.108212
0.554181 9.535199 31.108212
0.588266 9.535199 31.108212
0.622350 9.535199 31.108212
0.656434 9.535199 31.108212
0.690518 9.535199 31.108212
0.724603 9.535199 31.108212
0.758687 9.535199 31.108212
0.792771 9.535199 31.108212
0.826856 9.535199 31.108212
0.860940 9.535199 31.108212
0.895024 9.535199 31.108212
0.929109 9.535199 31.108212
58.829155 -113.327667 -368.410126
58.425499 -113.327667 -368.410126
58.021843 -113.327667 -368.410126
57.618187 -113.327667 -368.410126
57.214531 -113.327667 -368.410126
56.810875 -113.327667 -368.410126
56.407219 -113.327667 -368.410126
56.003563 -113.327667 -368.410126
55.599907 -113.327667 -368.410126
55.196251 -113.327667 -368.410126
54.792595 -113.327667 -368.410126
60.534698 -126.133301 -410.039185
67.739792 -142.201584 -462.274597
77.048607 -162.961441 -529.761597
89.540024 -190.818893 -620.321716
107.182709 -230.164352 -748.227478
133.990829 -289.949890 -942.580750
179.612762 -391.692688 -1273.330322
274.560181 -603.437622 -1961.679199
592.957336 -1313.504150 -4269.992188
-431.208984 970.518311 3154.999756
-427.752136 970.518311 3154.999756
-154.915787 354.348969 1151.931763
-116.630165 268.967102 874.369080
-93.212265 216.742188 704.594177
-92.440262 216.742188 704.594177
-76.763252 181.500519 590.029175
-65.471321 156.116425 507.509521
-50.726395 121.993240 396.580505
-45.337090 109.974396 357.509186
-40.914463 100.111374 325.446075
-40.557880 100.111374 325.446075
-36.892597 91.871864 298.660736
-33.784763 84.885498 275.949188
-31.116194 78.886597 256.447723
-27.016649 69.117462 224.689819
-25.209518 65.087326 211.588501
-23.601519 61.501282 199.930832
-22.161455 58.289753 189.490677
-21.953836 58.289753 189.490677
-20.667009 55.396988 180.086746
-8.391617 27.802090 90.380150
-8.091070 27.126465 88.183800
-7.804784 26.482897 86.091667
-7.022015 24.723244 80.371307
-6.783706 24.187531 78.629791
-6.555507 23.674541 76.962151
-6.336786 23.182859 75.363770
-6.126965 22.711185 73.830429
-5.925512 22.258322 72.358246
-5.731936 21.823166 70.943619
-5.545784 21.404697 69.583252
-5.366636 21.001976 68.274071
-5.194105 20.614130 67.013237
-5.027831 20.240347 65.798134
-4.867479 19.879879 64.626312
-4.712739 19.532026 63.495495
-4.563321 19.196136 62.403572
-4.418955 18.871605 61.348568
-4.279389 18.557863 60.328644
-4.144389 18.254383 59.342079
-4.013732 17.960669 58.387260
-3.887213 17.676256 57.462685
-3.764639 17.400711 56.566933
-3.645828 17.133625 55.698677
-3.530609 16.874615 54.856674
-3.418821 16.623318 54.039749
-3.310314 16.379396 53.246796
-3.204946 16.142529 52.476780
-3.102581 15.912415 51.728718
-3.003094 15.688769 51.001682
-2.906365 15.471323 50.294800
-2.812280 15.259823 49.607243
-2.720733 15.054027 48.938232
-2.631623 14.853707 48.287025
-2.544852 14.658648 47.652924
-2.460331 14.468647 47.035259
-2.377974 14.283508 46.433403
-2.297697 14.103047 45.846752
-2.219423 13.927090 45.274742
-2.143079 13.755468 44.716827
-2.068593 13.588025 44.172497
-1.995899 13.424610 43.641262
-1.924932 13.265079 43.122650
-1.855633 13.109294 42.616219
-1.787942 12.957126 42.121544
-1.721805 12.808450 41.638222
-1.657168 12.663147 41.165867
-1.593981 12.521105 40.704109
-1.532196 12.382213 40.252594
-1.471767 12.246368 39.810986
-1.412649 12.113473 39.378963
-1.354801 11.983431 38.956215
-1.298181 11.856151 38.542450
-1.242752 11.731546 38.137379
-1.188475 11.609533 37.740738
-1.135316 11.490032 37.352257
-1.083240 11.372967 36.971695
-0.161590 9.569283 31.108212
-0.127505 9.569283 31.108212
-0.093421 9.569283 31.108212
-0.059337 9.569283 31.108212
-0.025252 9.569283 31.108212
0.008832 9.569283 31.108212
0.417844 9.569283 31.108212
0.451928 9.569283 31.108212
0.486013 9.569283 31.108212
0.520097 9.569283 31.108212
0.554181 9.569283 31.108212
0.588266 9.569283 31.108212
0.622350 9.569283 31.108212
0.656434 9.569283 31.108212
0.690518 9.569283 31.108212
0.724603 9.569283 31.108212
0.758687 9.569283 31.108212
0.792771 9.569283 31.108212
0.826856 9.569283 31.108212
0.860940 9.569283 31.108212
0.895024 9.569283 31.108212
0.929109 9.569283 31.108212
0.963193 9.569283 31.108212
0.997277 9.569283 31.108212
59.232811 -113.731323 -368.410126
58.829155 -113.731323 -368.410126
58.425499 -113.731323 -368.410126
58.021843 -113.731323 -368.410126
57.618187 -113.731323 -368.410126
57.214531 -113.731323 -368.410126
56.810875 -113.731323 -368.410126
56.407219 -113.731323 -368.410126
56.003563 -113.731323 -368.410126
55.599907 -113.731323 -368.410126
55.196251 -113.731323 -368.410126
54.792595 -113.731323 -368.410126
60.534698 -126.582565 -410.039185
67.739792 -142.708084 -462.274597
77.048607 -163.541885 -529.761597
89.540024 -191.498566 -620.321716
107.182709 -230.984161 -748.227478
133.990829 -290.982666 -942.580750
179.612762 -393.087830 -1273.330322
274.560181 -605.586975 -1961.679199
592.957336 -1318.182617 -4269.992188
-431.208984 973.975159 3154.999756
-427.752136 973.975159 3154.999756
-154.915787 355.611084 1151.931763
-116.630165 269.925140 874.369080
-93.212265 217.514191 704.594177
-92.440262 217.514191 704.594177
-76.763252 182.146988 590.029175
-65.471321 156.672485 507.509521
-50.726395 122.427757 396.580505
-45.337090 110.366112 357.509186
-40.914463 100.467957 325.446075
-40.557880 100.467957 325.446075
-36.892597 92.199097 298.660736
-33.784763 85.187851 275.949188
-31.116194 79.167580 256.447723
-27.016649 69.363647 224.689819
-25.209518 65.319160 211.588501
-23.601519 61.720341 199.930832
-22.161455 58.497375 189.490677
-21.953836 58.497375 189.490677
-20.667009 55.594303 180.086746
-7.804784 26.577225 86.091667
-7.531767 25.961302 84.096504
-7.271118 25.373280 82.191719
-7.022015 24.811304 80.371307
-6.783706 24.273682 78.629791
-6.555507 23.758865 76.962151
-6.336786 23.265432 75.363770
-6.126965 22.792080 73.830429
-5.925512 22.337603 72.358246
-5.731936 21.900896 70.943619
-5.545784 21.480938 69.583252
-5.366636 21.076782 68.274071
-5.194105 20.687553 67.013237
-5.027831 20.312441 65.798134
-4.867479 19.950689 64.626312
-4.712739 19.601597 63.495495
-4.563321 19.264511 62.403572
-4.418955 18.938822 61.348568
-4.279389 18.623962 60.328644
-4.144389 18.319403 59.342079
-4.013732 18.024641 58.387260
-3.887213 17.739216 57.462685
-3.764639 17.462690 56.566933
-3.645828 17.194653 55.698677
-3.530609 16.934719 54.856674
-3.204946 16.200026 52.476780
-3.102581 15.969092 51.728718
-0.161590 9.603368 31.108212
-0.127505 9.603368 31.108212
-0.093421 9.603368 31.108212
-0.059337 9.603368 31.108212
-0.025252 9.603368 31.108212
0.008832 9.603368 31.108212
0.486013 9.603368 31.108212
0.520097 9.603368 31.108212
0.554181 9.603368 31.108212
0.588266 9.603368 31.108212
0.622350 9.603368 31.108212
0.656434 9.603368 31.108212
0.690518 9.603368 31.108212
0.724603 9.603368 31.108212
0.758687 9.603368 31.108212
0.792771 9.603368 31.108212
0.826856 9.603368 31.108212
0.860940 9.603368 31.108212
0.895024 9.603368 31.108212
0.929109 9.603368 31.108212
0.963193 9.603368 31.108212
0.997277 9.603368 31.108212
1.031362 9.603368 31.108212
1.065446 9.603368 31.108212
59.232811 -114.134979 -368.410126
58.829155 -114.134979 -368.410126
58.425499 -114.134979 -368.410126
58.021843 -114.134979 -368.410126
57.618187 -114.134979 -368.410126
57.214531 -114.134979 -368.410126
56.810875 -114.134979 -368.410126
56.407219 -114.134979 -368.410126
56.003563 -114.134979 -368.410126
55.599907 -114.134979 -368.410126
55.196251 -114.134979 -368.410126
54.792595 -114.134979 -368.410126
60.534698 -127.031830 -410.039185
60.085434 -127.031830 -410.039185
67.233292 -143.214584 -462.274597
76.468163 -164.122330 -529.761597
88.860352 -192.178223 -620.321716
106.362900 -231.803970 -748.227478
132.958069 -292.015411 -942.580750
178.217621 -394.482971 -1273.330322
272.410828 -607.736328 -1961.679199
588.278809 -1322.861206 -4269.992188
-153.653641 356.873230 1151.931763
-115.672142 270.883148 874.369080
-50.291874 122.862282 396.580505
-44.945377 110.757820 357.509186
-26.770462 69.609833 224.689819
-24.977686 65.550987 211.588501
-23.382460 61.939400 199.930832
-0.161590 9.637452 31.108212
-0.127505 9.637452 31.108212
-0.093421 9.637452 31.108212
-0.059337 9.637452 31.108212
-0.025252 9.637452 31.108212
0.008832 9.637452 31.108212
0.554181 9.637452 31.108212
0.588266 9.637452 31.108212
0.622350 9.637452 31.108212
0.656434 9.637452 31.108212
0.690518 9.637452 31.108212
0.724603 9.637452 31.108212
0.758687 9.637452 31.108212
0.792771 9.637452 31.108212
0.826856 9.637452 31.108212
0.860940 9.637452 31.108212
0.895024 9.637452 31.108212
0.929109 9.637452 31.108212
0.963193 9.637452 31.108212
0.997277 9.637452 31.108212
1.031362 9.637452 31.108212
1.065446 9.637452 31.108212
1.099530 9.637452 31.108212
1.133615 9.637452 31.108212
1.167699 9.637452 31.108212
1.201783 9.637452 31.108212
1.235868 9.637452 31.108212
59.636467 -114.538635 -368.410126
59.232811 -114.538635 -368.410126
58.829155 -114.538635 -368.410126
58.425499 -114.538635 -368.410126
58.021843 -114.538635 -368.410126
57.618187 -114.538635 -368.410126
57.214531 -114.538635 -368.410126
56.810875 -114.538635 -368.410126
56.407219 -114.538635 -368.410126
56.003563 -114.538635 -368.410126
55.599907 -114.538635 -368.410126
55.196251 -114.538635 -368.410126
